-0.9838984608650208 -1.8914587497711182 -0.03746333718299866
-0.987358808517456 -1.8900439739227295 -0.037469398230314255
-0.9868428707122803 -1.881047248840332 -0.037325140088796616
-0.9869245290756226 -1.8732463121414185 -0.037204477936029434
-0.9895603656768799 -1.8703240156173706 -0.03718069568276405
-0.9969446659088135 -1.876348853111267 -0.03733500838279724
-0.9954363107681274 -1.8656420707702637 -0.03715648874640465
-0.9957737922668457 -1.8584551811218262 -0.03704792261123657
-0.9990769624710083 -1.856825828552246 -0.03705015406012535
-1.00351083278656 -1.857288122177124 -0.037094276398420334
-1.0024479627609253 -1.8476009368896484 -0.036935701966285706
-1.0041007995605469 -1.8429644107818604 -0.03687799721956253
-1.0102307796478271 -1.8465349674224854 -0.036984678357839584
-1.0085976123809814 -1.8359302282333374 -0.03680748865008354
-1.0097078084945679 -1.8303717374801636 -0.036731332540512085
-1.0116589069366455 -1.8263624906539917 -0.03668626397848129
-1.0157546997070312 -1.8262276649475098 -0.03671912103891373
-1.0204498767852783 -1.8271523714065552 -0.036773476749658585
-1.0163383483886719 -1.8123509883880615 -0.03651123866438866
-1.0257927179336548 -1.8217480182647705 -0.03673657029867172
-1.0205310583114624 -1.805025339126587 -0.03643522039055824
-1.0258690118789673 -1.8070956468582153 -0.036513105034828186
-1.0301340818405151 -1.8072525262832642 -0.036552559584379196
-1.0307321548461914 -1.8009861707687378 -0.03646215796470642
-1.0318607091903687 -1.795678973197937 -0.03639112785458565
-1.0353542566299438 -1.794499158859253 -0.03640379384160042
-1.035832405090332 -1.7881089448928833 -0.03631078824400902
-1.0392818450927734 -1.7868640422821045 -0.036322299391031265
-1.0448704957962036 -1.7892777919769287 -0.03640838712453842
-1.042344093322754 -1.7778167724609375 -0.03621215000748634
-1.0450011491775513 -1.7752381563186646 -0.03619673475623131
-1.048100233078003 -1.7734135389328003 -0.03619678318500519
-1.0500454902648926 -1.7696443796157837 -0.036157213151454926
-1.051257610321045 -1.7646600008010864 -0.036092814058065414
-1.0528370141983032 -1.7603143453598022 -0.03604147583246231
-1.0519866943359375 -1.7519422769546509 -0.03590760752558708
-1.0619261264801025 -1.761519432067871 -0.03614184260368347
-1.0600124597549438 -1.7514225244522095 -0.03597259521484375
-1.0609768629074097 -1.7461270093917847 -0.03590181842446327
-1.063722014427185 -1.7437775135040283 -0.035891640931367874
-1.0665863752365112 -1.7416267395019531 -0.03588564321398735
-1.0678973197937012 -1.736951231956482 -0.03582766652107239
-1.06947922706604 -1.7327368259429932 -0.0357791930437088
-1.0731052160263062 -1.7318397760391235 -0.0357992984354496
-1.0755537748336792 -1.7290420532226562 -0.035780228674411774
-1.0770940780639648 -1.724797010421753 -0.035731241106987
-1.0796657800674438 -1.7222156524658203 -0.03571675717830658
-1.0795024633407593 -1.7152937650680542 -0.035612236708402634
-1.0793068408966064 -1.7083595991134644 -0.035507336258888245
-1.0832618474960327 -1.7080086469650269 -0.03553929924964905
-1.0864766836166382 -1.7064834833145142 -0.03554697707295418
-1.0872812271118164 -1.7011841535568237 -0.03547607362270355
-1.0912686586380005 -1.7008718252182007 -0.03550923615694046
-1.092341661453247 -1.6960222721099854 -0.035447750240564346
-1.0962510108947754 -1.6955821514129639 -0.03547849878668785
-1.0944923162460327 -1.6863974332809448 -0.035326242446899414
-1.0966538190841675 -1.6832852363586426 -0.03530110418796539
-1.100577473640442 -1.6828768253326416 -0.035332776606082916
-1.096969723701477 -1.6709846258163452 -0.035123251378536224
-1.1047087907791138 -1.6763865947723389 -0.03527728095650673
-1.106710433959961 -1.6730594635009766 -0.03524787351489067
-1.108275055885315 -1.669084906578064 -0.035204846411943436
-1.1096186637878418 -1.6647939682006836 -0.035155147314071655
-1.1098806858062744 -1.6589044332504272 -0.03507164120674133
-1.114665150642395 -1.6597785949707031 -0.03513121232390404
-1.113193392753601 -1.6513508558273315 -0.03499390929937363
-1.1209315061569214 -1.6565825939178467 -0.03514619171619415
-1.1182183027267456 -1.6463727951049805 -0.03497094288468361
-1.1258807182312012 -1.6514439582824707 -0.03512036055326462
-1.1227267980575562 -1.6406563520431519 -0.03493257611989975
-1.1247104406356812 -1.6374142169952393 -0.03490529954433441
-1.1235982179641724 -1.629691243171692 -0.03478242829442024
-1.1279959678649902 -1.629973292350769 -0.034830424934625626
-1.1283857822418213 -1.624468445777893 -0.034754835069179535
-1.1330643892288208 -1.6251412630081177 -0.03481150045990944
-1.13274347782135 -1.6186503171920776 -0.03471476584672928
-1.1420068740844727 -1.625837802886963 -0.0349116213619709
-1.1388719081878662 -1.6153714656829834 -0.03472951799631119
-1.1405243873596191 -1.611733078956604 -0.03469404950737953
-1.1450788974761963 -1.6121927499771118 -0.0347469225525856
-1.1423652172088623 -1.6024389266967773 -0.03457963466644287
-1.1501191854476929 -1.6073715686798096 -0.034729354083538055
-1.1514395475387573 -1.6032947301864624 -0.03468465059995651
-1.1501935720443726 -1.595672845840454 -0.03456315025687218
-1.152349829673767 -1.5927947759628296 -0.034544333815574646
-1.1579854488372803 -1.5947144031524658 -0.034629758447408676
-1.1561816930770874 -1.5863980054855347 -0.034492943435907364
-1.1555163860321045 -1.5796836614608765 -0.03439076617360115
-1.1569368839263916 -1.5758447647094727 -0.03435111045837402
-1.158095121383667 -1.5716632604599 -0.03430397808551788
-1.1631830930709839 -1.5728111267089844 -0.03437330573797226
-1.1647909879684448 -1.5692472457885742 -0.03433980420231819
-1.1627802848815918 -1.5608372688293457 -0.034200143069028854
-1.1685010194778442 -1.5628141164779663 -0.03428810089826584
-1.172579050064087 -1.5625725984573364 -0.034327663481235504
-1.1740585565567017 -1.5588679313659668 -0.034291256219148636
-1.1723724603652954 -1.5509872436523438 -0.03416287153959274
-1.1801649332046509 -1.5556429624557495 -0.03431075066328049
-1.1764672994613647 -1.545159101486206 -0.034124769270420074
-1.1823848485946655 -1.547318935394287 -0.03421800583600998
-1.1797510385513306 -1.53829824924469 -0.03406401351094246
-1.1808117628097534 -1.5341275930404663 -0.034017257392406464
-1.1875908374786377 -1.53737473487854 -0.03413517773151398
-1.1865854263305664 -1.5305424928665161 -0.03402942419052124
-1.1847237348556519 -1.52264404296875 -0.03389974683523178
-1.1886011362075806 -1.5221370458602905 -0.03393460437655449
-1.1898775100708008 -1.5182996988296509 -0.03389531746506691
-1.1944968700408936 -1.5187255144119263 -0.033951323479413986
-1.193796992301941 -1.5123945474624634 -0.033856336027383804
-1.1950359344482422 -1.508541226387024 -0.03381672874093056
-1.1979197263717651 -1.5067695379257202 -0.03382384404540062
-1.196602463722229 -1.4997303485870361 -0.03371267020702362
-1.204708456993103 -1.5044946670532227 -0.033866994082927704
-1.2045098543167114 -1.4988758563995361 -0.0337877981364727
-1.2077099084854126 -1.4974963665008545 -0.03380417823791504
-1.2085803747177124 -1.4932332038879395 -0.03375552222132683
-1.209833025932312 -1.4894559383392334 -0.03371782973408699
-1.2112798690795898 -1.4859288930892944 -0.033685799688100815
-1.2133920192718506 -1.4832251071929932 -0.033672478049993515
-1.2169078588485718 -1.4822349548339844 -0.0336981825530529
-1.2156972885131836 -1.4755005836486816 -0.033593278378248215
-1.2171238660812378 -1.4719882011413574 -0.03356163576245308
-1.2204781770706177 -1.4708086252212524 -0.03358326852321625
-1.2202963829040527 -1.4653761386871338 -0.0335078239440918
-1.2301357984542847 -1.4719582796096802 -0.0337073877453804
-1.2240768671035767 -1.4595222473144531 -0.033471494913101196
-1.2272663116455078 -1.4581472873687744 -0.03348904848098755
-1.229034185409546 -1.4550838470458984 -0.03346791863441467
-1.2260040044784546 -1.446366548538208 -0.03331658989191055
-1.2335100173950195 -1.450081467628479 -0.03345172107219696
-1.2357306480407715 -1.4475637674331665 -0.033443354070186615
-1.2372722625732422 -1.4442559480667114 -0.03341678902506828
-1.235595464706421 -1.4372128248214722 -0.03330368548631668
-1.23991060256958 -1.437148928642273 -0.0333523154258728
-1.2454438209533691 -1.4384772777557373 -0.03343354910612106
-1.248227834701538 -1.4366167783737183 -0.033440906554460526
-1.243332862854004 -1.4259473085403442 -0.03324302285909653
-1.2494592666625977 -1.4279330968856812 -0.03334011882543564
-1.2469496726989746 -1.4200547933578491 -0.03320695087313652
-1.2502002716064453 -1.4187532663345337 -0.033227503299713135
-1.2493939399719238 -1.4128578901290894 -0.03314046561717987
-1.256195068359375 -1.4155611991882324 -0.03325526788830757
-1.2521945238113403 -1.406100869178772 -0.03308432549238205
-1.2586041688919067 -1.4083400964736938 -0.03318866342306137
-1.2622151374816895 -1.4074275493621826 -0.03321903571486473
-1.2622778415679932 -1.402563452720642 -0.03315619379281998
-1.2626583576202393 -1.398069977760315 -0.03310202807188034
-1.2662084102630615 -1.3970894813537598 -0.033131103962659836
-1.2682560682296753 -1.3944485187530518 -0.033120933920145035
-1.271783709526062 -1.3934321403503418 -0.03314947709441185
-1.2704964876174927 -1.3871504068374634 -0.033052753657102585
-1.278578758239746 -1.391090989112854 -0.03319978713989258
-1.27180016040802 -1.3788764476776123 -0.03296121209859848
-1.275156855583191 -1.3776819705963135 -0.03298582509160042
-1.2783184051513672 -1.3762701749801636 -0.033005405217409134
-1.2761070728302002 -1.3690881729125977 -0.03288654610514641
-1.2832015752792358 -1.3718897104263306 -0.033007603138685226
-1.2812793254852295 -1.365049958229065 -0.03289680927991867
-1.285290241241455 -1.3645412921905518 -0.03293857350945473
-1.282643437385559 -1.356976866722107 -0.03280998021364212
-1.2854018211364746 -1.355148196220398 -0.032819975167512894
-1.2895857095718384 -1.354814052581787 -0.03286635875701904
-1.290569543838501 -1.351116418838501 -0.03283126279711723
-1.2849490642547607 -1.3405388593673706 -0.03262869641184807
-1.2912406921386719 -1.3424034118652344 -0.0327288992702961
-1.2982724905014038 -1.3450061082839966 -0.0328475646674633
-1.2953583002090454 -1.3373069763183594 -0.03271471709012985
-1.3016395568847656 -1.3391056060791016 -0.032814256846904755
-1.2956724166870117 -1.3283188343048096 -0.03260531276464462
-1.301806926727295 -1.329954981803894 -0.03270120918750763
-1.3073381185531616 -1.3309495449066162 -0.032781731337308884
-1.3077863454818726 -1.326764464378357 -0.032734841108322144
-1.3084897994995117 -1.3228509426116943 -0.03269459307193756
-1.309574842453003 -1.3193329572677612 -0.03266410157084465
-1.3059591054916382 -1.3111042976379395 -0.03251677379012108
-1.3134765625 -1.3140552043914795 -0.0326467826962471
-1.313374638557434 -1.309373378753662 -0.03258737921714783
-1.3182481527328491 -1.3096511363983154 -0.032651521265506744
-1.3106902837753296 -1.297603726387024 -0.03240815922617912
-1.3207151889801025 -1.3029708862304688 -0.03259974345564842
-1.3158535957336426 -1.2936491966247559 -0.032423947006464005
-1.3227652311325073 -1.2959105968475342 -0.032538458704948425
-1.316685676574707 -1.2854572534561157 -0.032333653420209885
-1.3224749565124512 -1.2866075038909912 -0.03242061287164688
-1.3263758420944214 -1.2859028577804565 -0.03246115893125534
-1.3290363550186157 -1.2839888334274292 -0.03247136250138283
-1.3338173627853394 -1.2841134071350098 -0.032533351331949234
-1.3285012245178223 -1.274533748626709 -0.0323493629693985
-1.333410620689392 -1.2747807502746582 -0.032414667308330536
-1.33473539352417 -1.2715946435928345 -0.03239285200834274
-1.3337284326553345 -1.2662010192871094 -0.0323147177696228
-1.3387598991394043 -1.2665412425994873 -0.03238300234079361
-1.3419147729873657 -1.2650936841964722 -0.03240583837032318
-1.3400169610977173 -1.2588931322097778 -0.032306887209415436
-1.3427270650863647 -1.257033348083496 -0.032319266349077225
-1.3507024049758911 -1.2600821256637573 -0.03245823085308075
-1.350764513015747 -1.2557367086410522 -0.032406993210315704
-1.33846914768219 -1.2399572134017944 -0.03206002339720726
-1.3536285161972046 -1.2496166229248047 -0.032370828092098236
-1.3448631763458252 -1.2371829748153687 -0.03210951015353203
-1.3494467735290527 -1.2370569705963135 -0.03216733783483505
-1.3538713455200195 -1.2367700338363647 -0.03222128748893738
-1.3539880514144897 -1.2325471639633179 -0.032172806560993195
-1.3632038831710815 -1.2365912199020386 -0.03234044089913368
-1.3579968214035034 -1.2275530099868774 -0.0321660190820694
-1.363197922706604 -1.2279367446899414 -0.03223838657140732
-1.373678207397461 -1.2330398559570312 -0.03243527561426163
-1.3887157440185547 -1.2421668767929077 -0.03273908793926239
-1.4023768901824951 -1.249986171722412 -0.03300965577363968
-1.4121923446655273 -1.2543177604675293 -0.03318909928202629
-1.4143891334533691 -1.2518584728240967 -0.0331893153488636
-1.4110561609268188 -1.2445220947265625 -0.033060070127248764
-1.4163492918014526 -1.2448010444641113 -0.033133119344711304
-1.4133719205856323 -1.237817645072937 -0.033012863248586655
-1.4135651588439941 -1.2336328029632568 -0.03296702355146408
-1.4172266721725464 -1.2324762344360352 -0.03300218656659126
-1.4248836040496826 -1.234772801399231 -0.03313023969531059
-1.4373949766159058 -1.241227626800537 -0.03337070718407631
-1.4500410556793213 -1.2477352619171143 -0.03361367806792259
-1.4655848741531372 -1.2566640377044678 -0.03392309322953224
-1.4689974784851074 -1.2551467418670654 -0.03395131230354309
-1.4724640846252441 -1.2536678314208984 -0.03398079425096512
-1.4677870273590088 -1.2452723979949951 -0.03382263705134392
-1.4734975099563599 -1.2456996440887451 -0.0339040607213974
-1.471210241317749 -1.2393683195114136 -0.033801596611738205
-1.478516936302185 -1.241117000579834 -0.03391963243484497
-1.4731189012527466 -1.2322081327438354 -0.0337463915348053
-1.4804848432540894 -1.233982801437378 -0.03386572748422623
-1.4724196195602417 -1.2229104042053223 -0.03363235294818878
-1.4817637205123901 -1.2263060808181763 -0.03379683196544647
-1.4781415462493896 -1.2189666032791138 -0.033665623515844345
-1.4853427410125732 -1.2205548286437988 -0.03378105163574219
-1.4871023893356323 -1.2176576852798462 -0.033772677183151245
-1.4858664274215698 -1.2123186588287354 -0.0336964875459671
-1.482885479927063 -1.205580472946167 -0.03358110412955284
-1.489168643951416 -1.206376552581787 -0.03367564454674721
-1.499271273612976 -1.2102315425872803 -0.03385627269744873
-1.4918583631515503 -1.199952244758606 -0.033641517162323
-1.4925611019134521 -1.1962320804595947 -0.03361022099852562
-1.4983264207839966 -1.196562647819519 -0.03369295224547386
-1.4973359107971191 -1.1914963722229004 -0.03362385183572769
-1.501389503479004 -1.1904470920562744 -0.0336681604385376
-1.5018973350524902 -1.1865851879119873 -0.033633042126894
-1.507002830505371 -1.1863515377044678 -0.033700939267873764
-1.5105942487716675 -1.1849130392074585 -0.033734943717718124
-1.5066086053848267 -1.1775438785552979 -0.03359997272491455
-1.5043158531188965 -1.1715271472930908 -0.033503178507089615
-1.5120989084243774 -1.1733533143997192 -0.033630844205617905
-1.516403079032898 -1.1724574565887451 -0.0336809940636158
-1.5177289247512817 -1.1692546606063843 -0.03366505354642868
-1.5128921270370483 -1.161325216293335 -0.033512745052576065
-1.5128743648529053 -1.1571197509765625 -0.033467553555965424
-1.5147465467453003 -1.1543656587600708 -0.03346433490514755
-1.4246071577072144 -1.0817455053329468 -0.0314311720430851
-1.4185466766357422 -1.073244333267212 -0.03125607222318649
-1.416784644126892 -1.068027138710022 -0.031176118180155754
-1.4204792976379395 -1.0669282674789429 -0.03121638298034668
-1.4231877326965332 -1.0650813579559326 -0.031234992668032646
-1.421082615852356 -1.0596405267715454 -0.031148141250014305
-1.4267878532409668 -1.0600237846374512 -0.03123258240520954
-1.4284902811050415 -1.0574232339859009 -0.03122938983142376
-1.4258723258972168 -1.0516369342803955 -0.03113197349011898
-1.4347749948501587 -1.0543406009674072 -0.03128611296415329
-1.5427221059799194 -1.1295229196548462 -0.033596914261579514
-1.5370128154754639 -1.1212263107299805 -0.03342990204691887
-1.5428452491760254 -1.1213592290878296 -0.033514123409986496
-1.5493988990783691 -1.121993899345398 -0.03361388295888901
-1.5418072938919067 -1.1123985052108765 -0.033407002687454224
-1.546514630317688 -1.1116944551467896 -0.033466894179582596
-1.5484702587127686 -1.1090052127838135 -0.03346726670861244
-1.5483782291412354 -1.1048545837402344 -0.0334235355257988
-1.556164264678955 -1.1063154935836792 -0.03354986384510994
-1.5542773008346558 -1.1008940935134888 -0.033467695116996765
-1.556357741355896 -1.0982924699783325 -0.033471155911684036
-1.554706335067749 -1.0930662155151367 -0.033394549041986465
-1.5576094388961792 -1.0910488367080688 -0.03341594338417053
-1.559049129486084 -1.0880050659179688 -0.03340602666139603
-1.5586392879486084 -1.0836776494979858 -0.03335665538907051
-1.5633293390274048 -1.0828946828842163 -0.033416517078876495
-1.5614105463027954 -1.0775365829467773 -0.03333524242043495
-1.5656782388687134 -1.0764515399932861 -0.03338618203997612
-1.5681432485580444 -1.0741193294525146 -0.03339871019124985
-1.5718814134597778 -1.0726529359817505 -0.033438391983509064
-1.5739171504974365 -1.0700196027755737 -0.03344190493226051
-1.5728683471679688 -1.0652962923049927 -0.03338005393743515
-1.5718998908996582 -1.060641884803772 -0.03332015126943588
-1.579681634902954 -1.0618839263916016 -0.03344576060771942
-1.5833348035812378 -1.060331106185913 -0.03348385915160179
-1.4830541610717773 -0.9894290566444397 -0.03132658079266548
-1.471271276473999 -0.9778604507446289 -0.03104158118367195
-1.4636428356170654 -0.9691105484962463 -0.03084488958120346
-1.4611438512802124 -0.9637909531593323 -0.030756719410419464
-1.4506443738937378 -0.9532350897789001 -0.030500631779432297
-1.4506311416625977 -0.9496045112609863 -0.030465450137853622
-1.4539204835891724 -0.9481359720230103 -0.030499722808599472
-1.446531057357788 -0.9397218823432922 -0.03031024895608425
-1.452056884765625 -0.9397108554840088 -0.030391613021492958
-1.4540899991989136 -0.937428891658783 -0.0303998664021492
-1.4465241432189941 -0.9289804100990295 -0.030207738280296326
-1.4538785219192505 -0.9301224946975708 -0.030327364802360535
-1.4493061304092407 -0.9236354231834412 -0.03019830398261547
-1.4517310857772827 -0.9216210246086121 -0.03021525964140892
-1.4442458152770996 -0.913335382938385 -0.030026232823729515
-1.4468002319335938 -0.9114186763763428 -0.030046213418245316
-1.4512814283370972 -0.9107064008712769 -0.030106212943792343
-1.4526584148406982 -0.9080396294593811 -0.030101845040917397
-1.4485960006713867 -0.9019868969917297 -0.029984986409544945
-1.4527437686920166 -0.9010539054870605 -0.03003823570907116
-1.4557918310165405 -0.8994289040565491 -0.030068745836615562
-1.451768159866333 -0.8934447765350342 -0.029953377321362495
-1.4523885250091553 -0.8903343677520752 -0.02993405982851982
-1.4524643421173096 -0.886896014213562 -0.02990366704761982
-1.4567954540252686 -0.8860527873039246 -0.02996094338595867
-1.458799958229065 -0.8837867379188538 -0.02997039072215557
-1.4521114826202393 -0.8762727379798889 -0.0298015046864748
-1.4590502977371216 -0.8769887685775757 -0.029912440106272697
-1.457567572593689 -0.8726372718811035 -0.02985076606273651
-1.4634263515472412 -0.8726778030395508 -0.029939504340291023
-1.4651895761489868 -0.8702653050422668 -0.029944447800517082
-1.4674184322357178 -0.868127167224884 -0.02995898202061653
-1.4628124237060547 -0.8619582056999207 -0.02983417734503746
-1.4649218320846558 -0.8597592115402222 -0.029846539720892906
-1.4702975749969482 -0.8594667315483093 -0.029925448819994926
-1.4736958742141724 -0.8580047488212585 -0.029964081943035126
-1.473971962928772 -0.8547235131263733 -0.029939310625195503
-1.4697799682617188 -0.8488672971725464 -0.029824014753103256
-1.481191873550415 -0.8520132899284363 -0.03002535179257393
-1.485056757926941 -0.8507894277572632 -0.030073542147874832
-1.4816256761550903 -0.845391571521759 -0.02997412532567978
-1.4852360486984253 -0.8440179228782654 -0.0300173107534647
-1.486951231956482 -0.8415616750717163 -0.030022235587239265
-1.4913368225097656 -0.8406096696853638 -0.03008110821247101
-1.495357632637024 -0.8394393920898438 -0.030132602900266647
-1.5012506246566772 -0.8393040299415588 -0.03022177889943123
-1.4969017505645752 -0.8334459066390991 -0.03010489232838154
-1.5058969259262085 -0.8350135684013367 -0.03025643713772297
-1.5078054666519165 -0.8326334953308105 -0.030265530571341515
-1.5135905742645264 -0.8323831558227539 -0.030352436006069183
-1.5080995559692383 -0.8259375691413879 -0.030213361606001854
-1.5206775665283203 -0.8293783664703369 -0.03043629601597786
-1.5267093181610107 -0.8292132019996643 -0.030528001487255096
-1.528529405593872 -0.8267492651939392 -0.030535485595464706
-1.5436805486679077 -0.8314640522003174 -0.03080911561846733
-1.5452419519424438 -0.828827977180481 -0.030811352655291557
-1.546215295791626 -0.82587730884552 -0.030801963061094284
-1.5595861673355103 -0.8295228481292725 -0.03103942796587944
-1.5810797214508057 -0.8374170660972595 -0.031438056379556656
-1.6726253032684326 -0.8821682333946228 -0.03322766721248627
-1.6805639266967773 -0.8826085925102234 -0.033354710787534714
-1.67660391330719 -0.8767979145050049 -0.03324568271636963
-1.6796578168869019 -0.8746640086174011 -0.03327590972185135
-1.683754563331604 -0.8730641603469849 -0.03332682326436043
-1.6857550144195557 -0.8703705072402954 -0.03333629295229912
-1.6839228868484497 -0.8657044172286987 -0.03327012434601784
-1.6870083808898926 -0.8635703921318054 -0.03330124542117119
-1.6898008584976196 -0.861280083656311 -0.033326636999845505
-1.6940767765045166 -0.8597369194030762 -0.03338131681084633
-1.6946455240249634 -0.8563082814216614 -0.033363014459609985
-1.6966584920883179 -0.8536103963851929 -0.03337325528264046
-1.6969165802001953 -0.8500311374664307 -0.033349089324474335
-1.7028385400772095 -0.8492820262908936 -0.033436283469200134
-1.704261064529419 -0.8462793231010437 -0.0334351547062397
-1.7017076015472412 -0.8413111567497253 -0.0333561934530735
-1.7012417316436768 -0.8373879790306091 -0.033318351954221725
-1.709841012954712 -0.8379156589508057 -0.03345806896686554
-1.7105870246887207 -0.8345808982849121 -0.033444102853536606
-1.711807131767273 -0.8314793705940247 -0.033439524471759796
-1.7099956274032593 -0.8269129395484924 -0.03337588533759117
-1.7123863697052002 -0.8243836164474487 -0.03339441120624542
-1.7078893184661865 -0.8185489177703857 -0.03327878937125206
-1.7084765434265137 -0.815165638923645 -0.033262450248003006
-1.70985746383667 -0.8121628761291504 -0.033261679112911224
-1.7084200382232666 -0.8078277111053467 -0.033206235617399216
-1.7226334810256958 -0.8108717203140259 -0.033454928547143936
-1.7244958877563477 -0.8080736994743347 -0.033463649451732635
-1.7205586433410645 -0.8025684356689453 -0.03336000815033913
-1.7309777736663818 -0.8037520051002502 -0.03353476896882057
-1.725294589996338 -0.7974545955657959 -0.03339764475822449
-1.727722406387329 -0.7949190735816956 -0.033417727798223495
-1.7265393733978271 -0.7907254099845886 -0.03336809203028679
-1.735274314880371 -0.7910639047622681 -0.03351016715168953
-1.7382020950317383 -0.7887362837791443 -0.033540062606334686
-1.738653540611267 -0.785283625125885 -0.033522266894578934
-1.74102783203125 -0.7826993465423584 -0.03354164958000183
-1.742180585861206 -0.7795642614364624 -0.03353758901357651
-1.7364674806594849 -0.7733721137046814 -0.03340156748890877
-1.7378345727920532 -0.7703480124473572 -0.033401940017938614
-1.7361302375793457 -0.7659687995910645 -0.03334343060851097
-1.743198275566101 -0.7654542922973633 -0.03345346078276634
-1.7470413446426392 -0.7635064721107483 -0.033501580357551575
-1.7522985935211182 -0.7621634006500244 -0.03357682749629021
-1.7517013549804688 -0.7582696676254272 -0.033539965748786926
-1.749912977218628 -0.7538707852363586 -0.03348047286272049
-1.7544169425964355 -0.7521825432777405 -0.033541470766067505
-1.7578883171081543 -0.7500404715538025 -0.03358275443315506
-1.7606356143951416 -0.7475820779800415 -0.03361025080084801
-1.7554371356964111 -0.74176025390625 -0.03348624333739281
-1.7643390893936157 -0.7418942451477051 -0.03363129496574402
-1.7573577165603638 -0.7353507280349731 -0.03347369655966759
-1.7680021524429321 -0.7361804246902466 -0.033651918172836304
-1.7651509046554565 -0.7313798666000366 -0.03357329219579697
-1.7685902118682861 -0.7291898727416992 -0.03361444175243378
-1.7689419984817505 -0.7257242798805237 -0.03359699621796608
-1.769761085510254 -0.7224531769752502 -0.03358854725956917
-1.7712186574935913 -0.7194432616233826 -0.03359232097864151
-1.774933099746704 -0.7173445820808411 -0.03363896533846855
-1.777173399925232 -0.7146431803703308 -0.033657729625701904
-1.777785301208496 -0.711286187171936 -0.03364574536681175
-1.7822246551513672 -0.7094554305076599 -0.03370627388358116
-1.7828706502914429 -0.7061092853546143 -0.033695124089717865
-1.777085304260254 -0.7002313733100891 -0.03356263041496277
-1.7840657234191895 -0.6993861198425293 -0.03367135301232338
-1.785794973373413 -0.6964696645736694 -0.0336809903383255
-1.7911428213119507 -0.6949551701545715 -0.033758919686079025
-1.7831672430038452 -0.6882814168930054 -0.03358589857816696
-1.7842870950698853 -0.6851369142532349 -0.033584412187337875
-1.7921706438064575 -0.6845763325691223 -0.03371025249361992
-1.7951215505599976 -0.6821147203445435 -0.03374330699443817
-1.7944952249526978 -0.6782939434051514 -0.03370922431349754
-1.7981464862823486 -0.6760886907577515 -0.0337555892765522
-1.8013625144958496 -0.6737107634544373 -0.03379382938146591
-1.8018182516098022 -0.6702979207038879 -0.03378037363290787
-1.8030937910079956 -0.6671912670135498 -0.03378240019083023
-1.8035742044448853 -0.6637915372848511 -0.0337696373462677
-1.8043173551559448 -0.6604906320571899 -0.03376190736889839
-1.8050906658172607 -0.6572023630142212 -0.0337548591196537
-1.8085497617721558 -0.6548880934715271 -0.033798109740018845
-1.813416838645935 -0.6530717611312866 -0.03386770933866501
-1.8068110942840576 -0.647131621837616 -0.03372318670153618
-1.817074179649353 -0.6472304463386536 -0.03389360010623932
-1.8090026378631592 -0.640798807144165 -0.03372212499380112
-1.8159215450286865 -0.6396837830543518 -0.03383023291826248
-1.8193449974060059 -0.6373215913772583 -0.03387323021888733
-1.825173020362854 -0.6357879042625427 -0.03396102413535118
-1.824770450592041 -0.6320775151252747 -0.033932946622371674
-1.821531891822815 -0.627396285533905 -0.03385230153799057
-1.82712721824646 -0.6257574558258057 -0.03393593803048134
-1.8233484029769897 -0.6209087371826172 -0.03384556621313095
-1.8316181898117065 -0.6201585531234741 -0.03397892415523529
-1.8302839994430542 -0.6161472797393799 -0.03393416479229927
-1.8357446193695068 -0.6144195795059204 -0.0340154692530632
-1.8357770442962646 -0.6108685731887817 -0.033996257930994034
-1.8393374681472778 -0.6084886789321899 -0.034042466431856155
-1.8383897542953491 -0.6046164631843567 -0.034005336463451385
-1.8416324853897095 -0.6021220684051514 -0.03404582291841507
-1.8433223962783813 -0.5991144776344299 -0.034057676792144775
-1.8450578451156616 -0.5961191654205322 -0.0340704582631588
-1.8478374481201172 -0.593456506729126 -0.034102603793144226
-1.8537700176239014 -0.5917937159538269 -0.034192971885204315
-1.84563148021698 -0.5856470465660095 -0.0340239442884922
-1.8451403379440308 -0.5819475054740906 -0.033996108919382095
-1.852885127067566 -0.5808355808258057 -0.034120071679353714
-1.8542883396148682 -0.5777220726013184 -0.034127283841371536
-1.8537405729293823 -0.5740028619766235 -0.034098707139492035
-1.855242133140564 -0.5709202885627747 -0.03410794585943222
-1.8554494380950928 -0.5674399733543396 -0.03409348800778389
-1.8629498481750488 -0.566179096698761 -0.03421309217810631
-1.865497350692749 -0.5633975863456726 -0.03424176201224327
-1.8626412153244019 -0.5589884519577026 -0.03417137265205383
-1.8648159503936768 -0.5560941100120544 -0.034193407744169235
-1.8616122007369995 -0.5516015887260437 -0.0341169536113739
-1.8743023872375488 -0.5518040657043457 -0.03433181345462799
-1.871282935142517 -0.5473669171333313 -0.034258950501680374
-1.8716154098510742 -0.5439189076423645 -0.03424759954214096
-1.8794664144515991 -0.5426439642906189 -0.034373871982097626
-1.8801908493041992 -0.5392988324165344 -0.03436984866857529
-1.8745964765548706 -0.5341539978981018 -0.03425048664212227
-1.877095103263855 -0.5313246250152588 -0.03427913784980774
-1.8828601837158203 -0.5294077396392822 -0.03436749055981636
-1.8842943906784058 -0.5262630581855774 -0.0343768447637558
-1.8817702531814575 -0.522018313407898 -0.0343141183257103
-1.8835660219192505 -0.5189767479896545 -0.03433028608560562
-1.8890507221221924 -0.5169413685798645 -0.03441375121474266
-1.8893358707427979 -0.5134756565093994 -0.03440256416797638
-1.8894569873809814 -0.5099679827690125 -0.034388504922389984
-1.8975788354873657 -0.5086076259613037 -0.03452011197805405
-1.8984390497207642 -0.5052874088287354 -0.034519657492637634
-1.8963149785995483 -0.5011785626411438 -0.03446507453918457
-1.898267149925232 -0.49815064668655396 -0.03448469564318657
-1.9024721384048462 -0.4957056939601898 -0.03454531356692314
-1.9019098281860352 -0.49201497435569763 -0.03451945260167122
-1.9083977937698364 -0.49014031887054443 -0.034621626138687134
-1.9043848514556885 -0.48556724190711975 -0.03453339263796806
-1.9081614017486572 -0.4829838275909424 -0.034586530178785324
-1.910218596458435 -0.47995755076408386 -0.03460857644677162
-1.9111299514770508 -0.4766410291194916 -0.03460996225476265
-1.9122281074523926 -0.47337037324905396 -0.03461482748389244
-1.9121286869049072 -0.4698044955730438 -0.034598127007484436
-1.9166275262832642 -0.4673633277416229 -0.03466471657156944
-1.920414924621582 -0.46473634243011475 -0.03471848741173744
-1.9222657680511475 -0.46163326501846313 -0.034737326204776764
-1.9248250722885132 -0.4586952030658722 -0.034769050776958466
-1.928484320640564 -0.45601072907447815 -0.034820716828107834
-1.9286450147628784 -0.45249485969543457 -0.03480929881334305
-1.9266200065612793 -0.4484725594520569 -0.034758567810058594
-1.9293891191482544 -0.44556769728660583 -0.034794438630342484
-1.933590054512024 -0.44298356771469116 -0.034856200218200684
-1.9297993183135986 -0.43857064843177795 -0.03477400913834572
-1.9400012493133545 -0.4373287558555603 -0.03494403138756752
-1.9367589950561523 -0.43304622173309326 -0.034871961921453476
-1.9406871795654297 -0.43036845326423645 -0.03492910787463188
-1.9415733814239502 -0.42701002955436707 -0.03493158891797066
-1.9435092210769653 -0.423880010843277 -0.0349530465900898
-1.9411972761154175 -0.4198269546031952 -0.03489823266863823
-1.948220133781433 -0.4177868068218231 -0.03501132130622864
-1.9438050985336304 -0.4132917821407318 -0.03491896018385887
-1.9551506042480469 -0.4121377468109131 -0.03510979190468788
-1.952018141746521 -0.4079194664955139 -0.03504070267081261
-1.9552109241485596 -0.4050254821777344 -0.03508526831865311
-1.9509044885635376 -0.40058261156082153 -0.034995388239622116
-1.9590224027633667 -0.3986864686012268 -0.03512847051024437
-1.9512025117874146 -0.39354875683784485 -0.034975871443748474
-1.9573559761047363 -0.3912349343299866 -0.03507387638092041
-1.9534413814544678 -0.3869071304798126 -0.03499157726764679
-1.9509978294372559 -0.382884681224823 -0.03493577614426613
-1.947135090827942 -0.37859755754470825 -0.034854721277952194
-1.937267541885376 -0.3731701374053955 -0.03466637060046196
-1.9285341501235962 -0.3679972290992737 -0.03449854254722595
-1.91804039478302 -0.3625255227088928 -0.03429945185780525
-1.921900987625122 -0.3597812056541443 -0.03435720503330231
-1.9253566265106201 -0.35695013403892517 -0.03440778702497482
-1.92493736743927 -0.3533974289894104 -0.03438921645283699
-1.9304203987121582 -0.3509214520454407 -0.03447617217898369
-1.9348236322402954 -0.34823352098464966 -0.034543901681900024
-1.9266088008880615 -0.34328362345695496 -0.03438648581504822
-1.927318811416626 -0.3399396538734436 -0.03438851237297058
-1.931969404220581 -0.3372832238674164 -0.03446093201637268
-1.932582974433899 -0.3339146077632904 -0.03446142375469208
-1.937608242034912 -0.3313002586364746 -0.03454066812992096
-1.9379243850708008 -0.32787320017814636 -0.03453604876995087
-1.941823959350586 -0.3250468671321869 -0.03459537774324417
-1.943892002105713 -0.3219052851200104 -0.034622155129909515
-2.258153200149536 -0.36989718675613403 -0.040207818150520325
-2.2556662559509277 -0.36544734239578247 -0.04015211760997772
-2.2615981101989746 -0.3623575270175934 -0.04024638235569
-2.269932985305786 -0.35962948203086853 -0.0403834730386734
-2.271033525466919 -0.35574063658714294 -0.040391940623521805
-2.2690367698669434 -0.3513704538345337 -0.0403454564511776
-2.2700459957122803 -0.3474697470664978 -0.04035255312919617
-2.2748842239379883 -0.34414681792259216 -0.04042781889438629
-2.274064064025879 -0.33996284008026123 -0.04040263220667839
-2.2769064903259277 -0.33632493019104004 -0.04044263809919357
-2.281067132949829 -0.33287137746810913 -0.04050615802407265
-2.288247585296631 -0.3298403024673462 -0.04062337428331375
-2.293229818344116 -0.32647275924682617 -0.040701646357774734
-2.2885043621063232 -0.3217247724533081 -0.040607742965221405
-2.2917776107788086 -0.3181058466434479 -0.04065591096878052
-2.2940585613250732 -0.3143412470817566 -0.04068657383322716
-2.296196937561035 -0.310551255941391 -0.040714822709560394
-2.306133985519409 -0.3077964186668396 -0.040881428867578506
-2.3088414669036865 -0.30405616760253906 -0.0409199558198452
-2.2999026775360107 -0.29879507422447205 -0.04075222462415695
-2.3071649074554443 -0.2956436276435852 -0.040871694684028625
-2.301492929458618 -0.2908337712287903 -0.04076215997338295
-2.3089592456817627 -0.28768277168273926 -0.04088543727993965
-2.3104960918426514 -0.2837788462638855 -0.04090381786227226
-2.312666654586792 -0.2799479067325592 -0.040933527052402496
-2.3136847019195557 -0.2759735584259033 -0.0409429594874382
-2.323652744293213 -0.273048996925354 -0.04111085459589958
-2.322859525680542 -0.2688453793525696 -0.04108845815062523
-2.3246867656707764 -0.264944851398468 -0.04111253470182419
-2.330176591873169 -0.2614504396915436 -0.04120148345828056
-2.3311030864715576 -0.25743430852890015 -0.041209857910871506
-2.3311679363250732 -0.2533228397369385 -0.04120312258601189
-2.333796977996826 -0.24948681890964508 -0.041241832077503204
-2.3281683921813965 -0.24477489292621613 -0.04113474860787392
-2.338092088699341 -0.24169199168682098 -0.04130256548523903
-2.3379905223846436 -0.23755693435668945 -0.04129338636994362
-2.339266300201416 -0.2335612028837204 -0.041308652609586716
-2.3305726051330566 -0.22858458757400513 -0.041148021817207336
-2.3514318466186523 -0.22648653388023376 -0.04150926321744919
-2.3495185375213623 -0.22216306626796722 -0.041468579322099686
-2.3538801670074463 -0.21842998266220093 -0.04153876379132271
-2.357619047164917 -0.21462620794773102 -0.04159806668758392
-2.3558359146118164 -0.21031761169433594 -0.04156006872653961
-2.3624093532562256 -0.2067478895187378 -0.04166959971189499
-2.3629462718963623 -0.2026386559009552 -0.04167276620864868
-2.3671600818634033 -0.19883762300014496 -0.04174089431762695
-2.362347364425659 -0.19428066909313202 -0.04164998605847359
-2.36865234375 -0.19063657522201538 -0.04175521433353424
-2.3705811500549316 -0.18662700057029724 -0.0417834110558033
-2.373560905456543 -0.18269269168376923 -0.04183024913072586
-2.3686771392822266 -0.17815756797790527 -0.04173863306641579
-2.374569892883301 -0.17443232238292694 -0.04183703660964966
-2.3739123344421387 -0.17021778225898743 -0.04182015359401703
-2.377474546432495 -0.16630175709724426 -0.041877731680870056
-2.3818414211273193 -0.16242913901805878 -0.041949592530727386
-2.3910419940948486 -0.15886333584785461 -0.042106688022613525
-2.384711742401123 -0.15426158905029297 -0.04199040308594704
-2.389918565750122 -0.1504090577363968 -0.04207739606499672
-2.391489267349243 -0.1463167369365692 -0.042100485414266586
-2.3972702026367188 -0.14247003197669983 -0.0421978160738945
-2.3944144248962402 -0.13810576498508453 -0.042143236845731735
-2.399705410003662 -0.13420799374580383 -0.042232174426317215
-2.398712635040283 -0.129952073097229 -0.042210645973682404
-2.0238964557647705 -0.10610273480415344 -0.03561161085963249
-2.016326427459717 -0.10217639803886414 -0.0354752242565155
-2.0099735260009766 -0.09833671897649765 -0.03536037355661392
-2.000617027282715 -0.09437820315361023 -0.03519282117486
-1.9967951774597168 -0.09070440381765366 -0.03512274846434593
-1.9920554161071777 -0.08700443804264069 -0.03503665328025818
-1.9852277040481567 -0.08323404937982559 -0.03491395711898804
-1.9858744144439697 -0.07978834956884384 -0.034922827035188675
-1.9716124534606934 -0.07576794922351837 -0.03466964513063431
-1.9712485074996948 -0.07230767607688904 -0.03466097265481949
-1.9638230800628662 -0.06860244274139404 -0.03452824801206589
-1.958825707435608 -0.06500415503978729 -0.03443833813071251
-1.9501309394836426 -0.061307501047849655 -0.03428353741765022
-1.9510036706924438 -0.057925667613744736 -0.03429705277085304
-1.940860629081726 -0.05423332378268242 -0.03411702811717987
-1.9362934827804565 -0.05072282254695892 -0.03403513878583908
-1.9350578784942627 -0.04731003940105438 -0.03401191532611847
-1.9263898134231567 -0.043733127415180206 -0.03385816514492035
-1.9208343029022217 -0.04025198891758919 -0.033759236335754395
-1.9111725091934204 -0.03671162948012352 -0.03358824923634529
-1.9083504676818848 -0.033324677497148514 -0.03353758156299591
-1.9078510999679565 -0.029984287917613983 -0.033527832478284836
-1.894758939743042 -0.02646990492939949 -0.033296894282102585
-1.8995797634124756 -0.023220369592308998 -0.03338084742426872
-1.887191653251648 -0.019773831591010094 -0.033162496984004974
-1.8831226825714111 -0.016443312168121338 -0.033090442419052124
-1.8757898807525635 -0.013104301877319813 -0.03296113386750221
-1.8702988624572754 -0.009800626896321774 -0.032864294946193695
-1.8669050931930542 -0.006523513700813055 -0.03280441462993622
-1.864499568939209 -0.0032600180711597204 -0.03276199474930763
-1.855224609375 -4.923004780721385e-06 -0.03259896859526634
-1.8532541990280151 4.917776550428243e-06 -0.09777355194091797
-1.8480935096740723 0.0032313326373696327 -0.09750143438577652
-1.8446955680847168 0.0064459070563316345 -0.09732260555028915
-1.8312757015228271 0.009596140123903751 -0.09661533683538437
-1.8320828676223755 0.01279896404594183 -0.09665895998477936
-1.8199033737182617 0.015891285613179207 -0.09601769596338272
-1.82261323928833 0.019097182899713516 -0.09616227447986603
-1.815102458000183 0.022187724709510803 -0.09576790779829025
-1.8161559104919434 0.025371814146637917 -0.0958256721496582
-1.8094353675842285 0.028437558561563492 -0.09547355026006699
-1.805151343345642 0.03152255341410637 -0.09525027126073837
-1.8060768842697144 0.03469284996390343 -0.09530215710401535
-1.794500708580017 0.03760461136698723 -0.09469463676214218
-1.785504698753357 0.04053473845124245 -0.0942235141992569
-1.779746174812317 0.04351283982396126 -0.09392349421977997
-1.782887578010559 0.04670422524213791 -0.0940934270620346
-1.7681176662445068 0.04940638318657875 -0.09331835061311722
-1.768417239189148 0.05250464379787445 -0.09333885461091995
-1.7712935209274292 0.05568527430295944 -0.09349565207958221
-1.7643153667449951 0.05854927748441696 -0.09313257038593292
-1.7598284482955933 0.06147627532482147 -0.09290125221014023
-1.7514187097549438 0.06424406915903091 -0.09246308356523514
-1.7463812828063965 0.06711244583129883 -0.09220318496227264
-1.7476223707199097 0.07021588087081909 -0.09227504581212997
-1.736690878868103 0.07281371206045151 -0.09170442074537277
-1.7357739210128784 0.07581115514039993 -0.09166285395622253
-1.72737717628479 0.07846608757972717 -0.09122653305530548
-1.7247291803359985 0.08136331290006638 -0.09109404683113098
-1.7167770862579346 0.08399227261543274 -0.09068165719509125
-1.713638186454773 0.08683781325817108 -0.09052372723817825
-1.7096771001815796 0.08962979912757874 -0.09032261371612549
-1.7090483903884888 0.09258899092674255 -0.09029779583215714
-1.705037236213684 0.09535738080739975 -0.09009452164173126
-1.699598789215088 0.0980299860239029 -0.08981606364250183
-1.6951357126235962 0.10074209421873093 -0.08958936482667923
-1.6925444602966309 0.10355370491743088 -0.08946183323860168
-1.689730167388916 0.10634283721446991 -0.0893227607011795
-1.6819366216659546 0.10880065709352493 -0.08892068266868591
-1.671163558959961 0.1110338494181633 -0.0883612409234047
-1.6790916919708252 0.11450526863336563 -0.08879087120294571
-1.674228310585022 0.11711044609546661 -0.08854436874389648
-1.661569595336914 0.11914032697677612 -0.08788575977087021
-1.6622601747512817 0.1221071258187294 -0.08793342858552933
-1.6529806852340698 0.12432721257209778 -0.08745389431715012
-1.6555087566375732 0.12742429971694946 -0.08759927749633789
-1.6498684883117676 0.12988798320293427 -0.08731269836425781
-1.6440927982330322 0.13232176005840302 -0.08701913058757782
-1.6416501998901367 0.13501015305519104 -0.0869022011756897
-1.6388925313949585 0.137664332985878 -0.08676880598068237
-1.6327084302902222 0.14001582562923431 -0.08645421266555786
-1.6336830854415894 0.1429729014635086 -0.08651889860630035
-1.6281378269195557 0.14535225927829742 -0.08623854070901871
-1.6283700466156006 0.1482389271259308 -0.08626441657543182
-1.6183562278747559 0.1501765251159668 -0.08574768155813217
-1.6148747205734253 0.15269747376441956 -0.08557721227407455
-1.6120012998580933 0.1552656590938568 -0.08543917536735535
-1.6111255884170532 0.15802060067653656 -0.08540724962949753
-1.6051145792007446 0.16026072204113007 -0.08510330319404602
-1.5998725891113281 0.16255874931812286 -0.08484029024839401
-1.5888842344284058 0.16424527764320374 -0.08427266031503677
-1.5904388427734375 0.16721276938915253 -0.08437046408653259
-1.5834378004074097 0.16927215456962585 -0.08401462435722351
-1.5855727195739746 0.17230066657066345 -0.084143728017807
-1.5854873657226562 0.17509257793426514 -0.08415529876947403
-1.5774531364440918 0.17699338495731354 -0.08374512195587158
-1.577587604522705 0.17979785799980164 -0.0837687999010086
-1.5647058486938477 0.18109744787216187 -0.08310144394636154
-1.5667065382003784 0.1841013878583908 -0.08322464674711227
-1.5618486404418945 0.18629544973373413 -0.08298373967409134
-1.5597563982009888 0.18880824744701385 -0.08288995921611786
-1.555321216583252 0.19102706015110016 -0.0826718658208847
-1.551252007484436 0.19327691197395325 -0.08247337490320206
-1.549988865852356 0.1958681344985962 -0.08242427557706833
-1.5408090353012085 0.19744162261486053 -0.08195432275533676
-1.5465013980865479 0.2009158879518509 -0.0822756215929985
-1.5337010622024536 0.20197628438472748 -0.08161326497793198
-1.5353971719741821 0.20492729544639587 -0.0817224383354187
-1.5281316041946411 0.20667356252670288 -0.08135480433702469
-1.531975269317627 0.20991750061511993 -0.0815788209438324
-1.5276494026184082 0.21204246580600739 -0.08136805146932602
-1.5221143960952759 0.21398337185382843 -0.08109301328659058
-1.5191786289215088 0.21627594530582428 -0.0809566006064415
-1.5225719213485718 0.21947169303894043 -0.08115771412849426
-1.5244040489196777 0.22245310246944427 -0.08127595484256744
-1.525930404663086 0.2253972589969635 -0.08137819170951843
-1.5311596393585205 0.22890183329582214 -0.08167825639247894
-1.5386725664138794 0.23277196288108826 -0.08210057765245438
-1.5336705446243286 0.2347547560930252 -0.0818554237484932
-1.5334402322769165 0.23746006190776825 -0.08186513185501099
-1.5370475053787231 0.24076715111732483 -0.08208002150058746
-1.539925217628479 0.24397306144237518 -0.08225631713867188
-1.5456010103225708 0.24763911962509155 -0.08258246630430222
-1.5424492359161377 0.24989686906337738 -0.08243724703788757
-1.5449625253677368 0.2530728578567505 -0.08259506523609161
-1.550460696220398 0.25675374269485474 -0.08291283249855042
-1.547026515007019 0.2589607238769531 -0.08275323361158371
-1.554084062576294 0.26293209195137024 -0.08315518498420715
-1.551293969154358 0.2652466595172882 -0.08303054422140121
-1.552071213722229 0.26816922426223755 -0.08309707790613174
-1.557448148727417 0.2718992829322815 -0.08341024070978165
-1.5614008903503418 0.27539920806884766 -0.08364755660295486
-1.566468596458435 0.27911376953125 -0.08394502103328705
-1.5653893947601318 0.2817419767379761 -0.0839134156703949
-1.5584144592285156 0.2832963466644287 -0.08356591314077377
-1.5663245916366577 0.2875600755214691 -0.08401685953140259
-1.5683023929595947 0.2907543182373047 -0.0841500461101532
-1.5702345371246338 0.2939490079879761 -0.08428112417459488
-1.5715768337249756 0.29704102873802185 -0.08438087999820709
-1.575104832649231 0.30055689811706543 -0.0845983549952507
-1.5721467733383179 0.302837997674942 -0.08446774631738663
-1.5781419277191162 0.30685117840766907 -0.08481850475072861
-1.584236741065979 0.3109075427055359 -0.08517511188983917
-1.5825390815734863 0.3134446144104004 -0.08511313050985336
-1.585013508796692 0.31681138277053833 -0.08527582883834839
-1.5910881757736206 0.3209153115749359 -0.08563266694545746
-1.585711121559143 0.322712779045105 -0.08537346869707108
-1.5969663858413696 0.32790789008140564 -0.08601012825965881
-1.5951364040374756 0.3304353952407837 -0.08594250679016113
-1.5976370573043823 0.3338633179664612 -0.0861085057258606
-1.5995575189590454 0.3371801972389221 -0.08624361455440521
-1.5989761352539062 0.3399742543697357 -0.086244136095047
-1.6062034368515015 0.3444429337978363 -0.08666625618934631
-1.6037027835845947 0.34683626890182495 -0.08656387031078339
-1.607210636138916 0.3505331873893738 -0.08678611367940903
-1.6126742362976074 0.3546752631664276 -0.08711443841457367
-1.6126117706298828 0.3576141595840454 -0.08714466542005539
-1.6141172647476196 0.3609057068824768 -0.0872599333524704
-1.6127372980117798 0.36355459690093994 -0.08721951395273209
-1.6175212860107422 0.367601603269577 -0.08751281350851059
-1.6179510354995728 0.37067097425460815 -0.08757093548774719
-1.6250572204589844 0.37528616189956665 -0.0879908874630928
-1.629502296447754 0.3793104290962219 -0.08826728910207748
-1.6295192241668701 0.3823145627975464 -0.08830422908067703
-1.6310995817184448 0.38569092750549316 -0.08842622488737106
-1.6272308826446533 0.38777703046798706 -0.08825305104255676
-1.6332807540893555 0.39223334193229675 -0.08861817419528961
-1.6360723972320557 0.39592602849006653 -0.08880700916051865
-1.6366519927978516 0.3990921974182129 -0.0888761579990387
-1.640723705291748 0.40312108397483826 -0.08913534879684448
-1.6508718729019165 0.40867185592651367 -0.08972528576850891
-1.6529176235198975 0.4122421443462372 -0.08987545222043991
-1.6553246974945068 0.415913462638855 -0.09004567563533783
-1.646984338760376 0.41687604784965515 -0.08963143825531006
-1.6543940305709839 0.42182624340057373 -0.09007462859153748
-1.6550323963165283 0.42506757378578186 -0.0901496484875679
-1.6556771993637085 0.42831575870513916 -0.09022536128759384
-1.6632535457611084 0.43337517976760864 -0.09067932516336441
-1.6591548919677734 0.43540188670158386 -0.09049717336893082
-1.6650339365005493 0.4400531053543091 -0.09085960686206818
-1.6703187227249146 0.44457104802131653 -0.09119021147489548
-1.6665126085281372 0.44667497277259827 -0.09102485328912735
-1.6773051023483276 0.45270779728889465 -0.0916573628783226
-1.6803836822509766 0.4566875398159027 -0.09186901897192001
-1.6736384630203247 0.4579935073852539 -0.09154382348060608
-1.6793955564498901 0.46272194385528564 -0.09190277010202408
-1.6828970909118652 0.46684929728507996 -0.0921388491988182
-1.6881049871444702 0.4714694619178772 -0.09246890991926193
-1.6869323253631592 0.4743182957172394 -0.09244988858699799
-1.6837416887283325 0.47659459710121155 -0.09232048690319061
-1.6930795907974243 0.4824320077896118 -0.09287853538990021
-1.6954689025878906 0.48631471395492554 -0.09305603802204132
-1.701315999031067 0.4912079870700836 -0.09342388063669205
-1.695278286933899 0.49267277121543884 -0.09313942492008209
