-1.8037595748901367 0.6567177176475525 -0.1690676212310791
-1.8046599626541138 0.6606160998344421 -0.16925986111164093
-1.811618447303772 0.6667521595954895 -0.1700214147567749
-1.8125081062316895 0.6706748008728027 -0.17021453380584717
-1.8144395351409912 0.6749932169914246 -0.1705063283443451
-1.8162920475006104 0.6792944669723511 -0.1707915961742401
-1.8193656206130981 0.684066891670227 -0.17119264602661133
-1.8218529224395752 0.6886347532272339 -0.1715395599603653
-1.8309109210968018 0.6957140564918518 -0.17250652611255646
-1.8327053785324097 0.7000598907470703 -0.17279048264026642
-1.8292087316513062 0.7023860812187195 -0.1725761592388153
-1.8406246900558472 0.710459291934967 -0.17376995086669922
-1.8404330015182495 0.7140795588493347 -0.1738692820072174
-1.843083381652832 0.7188124656677246 -0.1742379516363144
-2.8326945304870605 1.1104676723480225 -0.2679748237133026
-2.8327529430389404 1.1161998510360718 -0.2681642770767212
-2.840172529220581 1.1248557567596436 -0.2690521776676178
-2.8383634090423584 1.129875659942627 -0.2690672278404236
-2.8491017818450928 1.1399165391921997 -0.2702734172344208
-2.8521809577941895 1.1469289064407349 -0.2707550525665283
-2.8556289672851562 1.1541111469268799 -0.2712732255458832
-2.8603410720825195 1.1618289947509766 -0.2719131410121918
-2.8673081398010254 1.1704946756362915 -0.2727693021297455
-2.8685622215270996 1.1768532991409302 -0.2730836272239685
-2.8700859546661377 1.183336615562439 -0.2734249234199524
-2.8760881423950195 1.19169020652771 -0.27419453859329224
-2.8803915977478027 1.1993695497512817 -0.274804025888443
-2.890423536300659 1.2094721794128418 -0.27596214413642883
-2.8916046619415283 1.2159028053283691 -0.2762771546840668
-2.8981785774230957 1.224625825881958 -0.2771091163158417
-2.8985660076141357 1.230757713317871 -0.27735117077827454
-2.8989858627319336 1.236914038658142 -0.2775975465774536
-2.9038643836975098 1.2449924945831299 -0.2782723903656006
-2.91269588470459 1.25480318069458 -0.27932822704315186
-2.91831636428833 1.2632694244384766 -0.28007829189300537
-2.9210398197174072 1.2705081701278687 -0.28055211901664734
-2.927095890045166 1.2792237997055054 -0.2813478410243988
-2.9287140369415283 1.286025047302246 -0.28171873092651367
-2.9374501705169678 1.2959829568862915 -0.2827762961387634
-2.9414889812469482 1.3039045333862305 -0.2833838164806366
-2.946052312850952 1.3120859861373901 -0.28404366970062256
-2.9519095420837402 1.3208751678466797 -0.2848303020000458
-2.954253673553467 1.328119158744812 -0.285279780626297
-2.9618349075317383 1.3377480506896973 -0.286236971616745
-2.649521827697754 1.2022618055343628 -0.25625693798065186
-2.639526605606079 1.2032876014709473 -0.2554929852485657
-2.6360461711883545 1.2072638273239136 -0.2553597390651703
-2.6327896118164062 1.2113373279571533 -0.2552487552165985
-2.631922483444214 1.2165104150772095 -0.25537019968032837
-2.63454532623291 1.2233092784881592 -0.2558315098285675
-3.000354290008545 1.3995393514633179 -0.29159075021743774
-3.0008816719055176 1.4061695337295532 -0.29188013076782227
-3.0099122524261475 1.4168148040771484 -0.29299864172935486
-3.0111758708953857 1.4238367080688477 -0.29336315393447876
-3.011873483657837 1.4306057691574097 -0.2936740219593048
-3.0210959911346436 1.4414559602737427 -0.2948181927204132
-3.025897264480591 1.450237512588501 -0.29553335905075073
-3.027942657470703 1.4577237367630005 -0.295981228351593
-3.0427396297454834 1.4713960886001587 -0.29767829179763794
-3.0407211780548096 1.4769753217697144 -0.2977325916290283
-3.046006441116333 1.4861207008361816 -0.29850372672080994
-2.8954901695251465 1.4189485311508179 -0.28399568796157837
-2.898285150527954 1.4265986680984497 -0.2845136523246765
-2.9021530151367188 1.4348021745681763 -0.2851388156414032
-2.9099481105804443 1.4449833631515503 -0.2861521244049072
-2.9167704582214355 1.4547244310379028 -0.2870723009109497
-2.867795944213867 1.436556100845337 -0.2824985682964325
-2.8526558876037598 1.4352073669433594 -0.2812535762786865
-2.849952459335327 1.4400876760482788 -0.281234472990036
-2.8503477573394775 1.4465396404266357 -0.281522274017334
-2.853029727935791 1.4541699886322021 -0.2820374667644501
-2.851982355117798 1.459914207458496 -0.28218546509742737
-2.926732063293457 1.5046323537826538 -0.2898409068584442
-2.881632089614868 1.4878125190734863 -0.28563135862350464
-2.8765053749084473 1.4915319681167603 -0.28538087010383606
-2.8795063495635986 1.4994724988937378 -0.2859378755092621
-2.8792974948883057 1.505759358406067 -0.28617775440216064
-2.8898324966430664 1.5176994800567627 -0.2874877452850342
-2.891751766204834 1.5251542329788208 -0.28794312477111816
-2.890655755996704 1.5310325622558594 -0.2880997061729431
-2.8507792949676514 1.5162910223007202 -0.28438878059387207
-2.841447114944458 1.5176972150802612 -0.2837216854095459
-2.843287944793701 1.5250664949417114 -0.284170925617218
-2.8312435150146484 1.5249769687652588 -0.28323280811309814
-2.830364465713501 1.5308842658996582 -0.28341180086135864
-2.8206307888031006 1.5319905281066895 -0.28270453214645386
-2.812751531600952 1.5340760946273804 -0.28218281269073486
-2.8066213130950928 1.5370961427688599 -0.281836599111557
-2.800722122192383 1.5402275323867798 -0.2815137803554535
-2.7899374961853027 1.5406465530395508 -0.2806997001171112
-2.7860896587371826 1.5448750257492065 -0.2805835008621216
-2.7909529209136963 1.5539485216140747 -0.28134608268737793
-2.7846527099609375 1.5568153858184814 -0.2809845209121704
-2.777806520462036 1.5593595504760742 -0.2805679738521576
-2.7737817764282227 1.5634748935699463 -0.2804367244243622
-2.762147903442383 1.5632779598236084 -0.27953600883483887
-2.760429859161377 1.5686746835708618 -0.2796388566493988
-2.7431933879852295 1.5652216672897339 -0.278169184923172
-2.7431883811950684 1.571573257446289 -0.2784464359283447
-2.738874912261963 1.5754594802856445 -0.2782873809337616
-2.7386066913604736 1.581674575805664 -0.2785402536392212
-2.7295589447021484 1.582810401916504 -0.27790066599845886
-2.7177529335021973 1.5823110342025757 -0.2769795060157776
-2.7263708114624023 1.5937080383300781 -0.2781409025192261
-2.721311330795288 1.5971312522888184 -0.2779088020324707
-2.7171857357025146 1.601094126701355 -0.2777724862098694
-2.695466995239258 1.5946426391601562 -0.27583640813827515
-2.6981987953186035 1.602624535560608 -0.2764018476009369
-2.688959836959839 1.6034941673278809 -0.2757417857646942
-2.6885411739349365 1.6096140146255493 -0.27598661184310913
-2.684908866882324 1.6138135194778442 -0.27590253949165344
-2.681027412414551 1.6178587675094604 -0.27579349279403687
-2.679292917251587 1.6231995820999146 -0.27590614557266235
-2.6744306087493896 1.626643419265747 -0.2756974399089813
-2.6678833961486816 1.6290487051010132 -0.2753152847290039
-2.6603214740753174 1.6308141946792603 -0.27482831478118896
-2.6473915576934814 1.6292533874511719 -0.2737859785556793
-2.6459267139434814 1.6347275972366333 -0.273929238319397
-2.6502809524536133 1.643817663192749 -0.27467671036720276
-2.6408638954162598 1.6443678140640259 -0.27399781346321106
-2.638502597808838 1.649296760559082 -0.27405115962028503
-2.6347174644470215 1.6533348560333252 -0.27395740151405334
-2.625363826751709 1.653860330581665 -0.2732846140861511
-2.615305185317993 1.6539087295532227 -0.2725377380847931
-2.6168575286865234 1.6612930297851562 -0.2730013132095337
-2.6081936359405518 1.6621885299682617 -0.27239978313446045
-2.5463855266571045 1.6290565729141235 -0.2662411630153656
-2.525416612625122 1.6218620538711548 -0.26434439420700073
-2.529198169708252 1.6305341720581055 -0.26503777503967285
-2.523444414138794 1.633068323135376 -0.2647331953048706
-2.520777940750122 1.6375937461853027 -0.26475298404693604
-2.523777961730957 1.6458152532577515 -0.2653694152832031
-2.5729005336761475 1.6842584609985352 -0.2708432972431183
-2.5611491203308105 1.6829605102539062 -0.2699151635169983
-2.5587985515594482 1.687819480895996 -0.2699775695800781
-2.554945945739746 1.691686749458313 -0.2698822617530823
-2.5517969131469727 1.6960171461105347 -0.26986199617385864
-2.5453083515167236 1.6981186866760254 -0.2694889008998871
-2.543747663497925 1.7035024166107178 -0.26963815093040466
-2.534670352935791 1.7038406133651733 -0.2689908444881439
-2.5313034057617188 1.708000898361206 -0.2689495384693146
-2.5211517810821533 1.707564115524292 -0.2681872844696045
-2.520468235015869 1.7135275602340698 -0.2684323787689209
-2.515448570251465 1.7165437936782837 -0.2682165205478668
-2.5079281330108643 1.7178367376327515 -0.26773402094841003
-2.4983086585998535 1.7176634073257446 -0.26702681183815
-2.4992427825927734 1.7247389554977417 -0.2674480676651001
-2.525815725326538 1.7495945692062378 -0.27061814069747925
-2.52862286567688 1.7580796480178833 -0.27124732732772827
-2.5200812816619873 1.758675217628479 -0.27066001296043396
-2.516385555267334 1.7626367807388306 -0.27059316635131836
-2.523366689682007 1.774101734161377 -0.27167654037475586
-2.5208311080932617 1.7789033651351929 -0.2717374861240387
-2.5430243015289307 1.8012233972549438 -0.27446839213371277
-2.538151979446411 1.8044346570968628 -0.2742820978164673
-2.5490806102752686 1.8189119100570679 -0.27580583095550537
-2.5549685955047607 1.8298532962799072 -0.2767881155014038
-2.556421995162964 1.837654948234558 -0.2772926986217499
-2.5650343894958496 1.8506464958190918 -0.27857691049575806
-2.5700125694274902 1.8610690832138062 -0.2794699966907501
-2.580761671066284 1.8757299184799194 -0.28099456429481506
-2.590667247772217 1.8898502588272095 -0.2824319005012512
-2.603884696960449 1.906466007232666 -0.28423526883125305
-2.637690544128418 1.9382998943328857 -0.28829437494277954
-2.639173984527588 1.9464945793151855 -0.288827508687973
-2.6523494720458984 1.963370680809021 -0.290644109249115
-2.6516518592834473 1.9700294733047485 -0.29094406962394714
-2.6630516052246094 1.9857237339019775 -0.29257482290267944
-2.6739308834075928 2.0011091232299805 -0.29415345191955566
-2.6782121658325195 2.0116169452667236 -0.2950102984905243
-2.6841979026794434 2.0234522819519043 -0.2960582971572876
-2.6926000118255615 2.037168025970459 -0.2973768413066864
-2.7023651599884033 2.0519840717315674 -0.29885050654411316
-2.7065787315368652 2.06264328956604 -0.29971426725387573
-2.7156848907470703 2.07708740234375 -0.301123708486557
-2.7289507389068604 2.0947952270507812 -0.30299973487854004
-2.7313215732574463 2.104203462600708 -0.30367037653923035
-2.7410759925842285 2.119354248046875 -0.3051658272743225
-2.7458648681640625 2.1307265758514404 -0.3061126172542572
-2.757660150527954 2.1476032733917236 -0.3078450858592987
-2.7671115398406982 2.1627352237701416 -0.30932119488716125
-2.772794485092163 2.174985408782959 -0.3103804588317871
-2.8658485412597656 2.2560698986053467 -0.32123711705207825
-2.8737661838531494 2.2704403400421143 -0.322568416595459
-2.7404708862304688 2.5745644569396973 -0.3311727046966553
-2.7352867126464844 2.5786988735198975 -0.3310897648334503
-2.7218778133392334 2.575047492980957 -0.330010324716568
-2.7187137603759766 2.581063747406006 -0.3301725685596466
-2.7140989303588867 2.5857064723968506 -0.33015984296798706
-2.710787534713745 2.591594696044922 -0.33030688762664795
-2.7057721614837646 2.595856189727783 -0.3302474915981293
-2.702672243118286 2.6019585132598877 -0.3304230570793152
-2.7186379432678223 2.6264898777008057 -0.33293506503105164
0.09861191362142563 -3.962817668914795 -0.34913262724876404
0.09144191443920135 -3.952113389968872 -0.34817492961883545
0.08408758044242859 -3.9310171604156494 -0.34630295634269714
0.07712074369192123 -3.9258692264556885 -0.3458370566368103
0.0700078010559082 -3.911527156829834 -0.3445623219013214
0.06301643699407578 -3.9015843868255615 -0.34367626905441284
0.05597606301307678 -3.8858022689819336 -0.3422769606113434
0.04910077154636383 -3.8786797523498535 -0.34164151549339294
0.04216397926211357 -3.8636152744293213 -0.3403075933456421
0.035275787115097046 -3.848085641860962 -0.3389337956905365
0.028505375608801842 -3.841090679168701 -0.3383127748966217
0.02172352746129036 -3.8277461528778076 -0.33713358640670776
0.015010137110948563 -3.8199315071105957 -0.3364425003528595
0.008295434527099133 -3.798978567123413 -0.334595263004303
0.001660240930505097 -3.7924091815948486 -0.3340158760547638
-0.004952144343405962 -3.7859461307525635 -0.3334469199180603
-0.011514105834066868 -3.7703511714935303 -0.33207467198371887
-0.018062112852931023 -3.763179063796997 -0.33144524693489075
-0.024538036435842514 -3.7488036155700684 -0.33018237352371216
-0.03103725053369999 -3.7432730197906494 -0.3296995460987091
-0.03735405206680298 -3.7214744091033936 -0.32778480648994446
-0.04377244412899017 -3.714737892150879 -0.3271976709365845
-0.050097763538360596 -3.70284104347229 -0.32615700364112854
-0.0563061386346817 -3.685988664627075 -0.32468074560165405
-0.06277669221162796 -3.6879758834838867 -0.3248649835586548
-0.0689101442694664 -3.671611785888672 -0.32343360781669617
-0.0751853734254837 -3.664924144744873 -0.32285556197166443
-0.08127549290657043 -3.6509504318237305 -0.3216365575790405
-0.0874512568116188 -3.6425564289093018 -0.3209100365638733
-0.09343083202838898 -3.6276628971099854 -0.3196118175983429
-0.09949719160795212 -3.6177964210510254 -0.3187573552131653
-0.10547849535942078 -3.606179714202881 -0.317749559879303
-0.1115025207400322 -3.5972301959991455 -0.31697767972946167
-0.11743529140949249 -3.586428165435791 -0.3160434067249298
-0.12334036827087402 -3.575897455215454 -0.3151339292526245
-0.1293540745973587 -3.569359302520752 -0.3145771622657776
-0.13543620705604553 -3.5652031898498535 -0.3142312169075012
-0.1410052329301834 -3.5484793186187744 -0.31277841329574585
-0.14666180312633514 -3.53525447845459 -0.3116348385810852
-0.15265770256519318 -3.5309276580810547 -0.3112764358520508
-0.15801766514778137 -3.512779474258423 -0.3097003996372223
-0.16397050023078918 -3.5086557865142822 -0.30936160683631897
-0.16967879235744476 -3.499764919281006 -0.30860331654548645
-0.17521709203720093 -3.488088846206665 -0.3076002597808838
-0.1808372437953949 -3.478753089904785 -0.3068043291568756
-0.18622775375843048 -3.465731382369995 -0.3056841194629669
-0.19159874320030212 -3.4531590938568115 -0.30460426211357117
-0.1972086876630783 -3.4455106258392334 -0.3039594888687134
-0.20254108309745789 -3.4335904121398926 -0.30293864011764526
-0.20804445445537567 -3.425152540206909 -0.3022257685661316
-0.2137356549501419 -3.420173406600952 -0.3018188774585724
-0.21945740282535553 -3.4159204959869385 -0.30147692561149597
-0.2244158238172531 -3.4003076553344727 -0.3001331090927124
-0.23028162121772766 -3.3988752365112305 -0.30004170536994934
-0.2355707883834839 -3.3891987800598145 -0.2992233335971832
-0.24072855710983276 -3.3781344890594482 -0.2982831597328186
-0.2453991025686264 -3.3609087467193604 -0.29679954051971436
-0.25105205178260803 -3.3576104640960693 -0.2965465188026428
-0.2563399076461792 -3.349672794342041 -0.29588454961776733
-0.2615048587322235 -3.340501308441162 -0.29511427879333496
-0.2662716507911682 -3.326737642288208 -0.29393893480300903
-0.27174535393714905 -3.3221874237060547 -0.2935783863067627
-0.27687814831733704 -3.3137288093566895 -0.29287317395210266
-0.282176673412323 -3.3075411319732666 -0.29236939549446106
-0.28739362955093384 -3.300647020339966 -0.29180389642715454
-0.2922925353050232 -3.2904257774353027 -0.290944904088974
-0.2969454526901245 -3.2778661251068115 -0.28987976908683777
-0.30181625485420227 -3.26812481880188 -0.2890644669532776
-0.30727314949035645 -3.264955997467041 -0.2888311743736267
-0.3119097948074341 -3.253328323364258 -0.2878502905368805
-0.3170962631702423 -3.247731924057007 -0.2874036729335785
-0.3218969404697418 -3.2384331226348877 -0.2866300642490387
-0.3262021839618683 -3.224541425704956 -0.2854504883289337
-0.33138173818588257 -3.2196009159088135 -0.2850639224052429
-0.3358761668205261 -3.2082631587982178 -0.28411155939102173
-0.34089529514312744 -3.2022106647491455 -0.28362786769866943
-0.3460253179073334 -3.1973607540130615 -0.2832513451576233
-0.35018742084503174 -3.183847427368164 -0.282107949256897
-0.35490140318870544 -3.175679922103882 -0.2814387381076813
-0.35988181829452515 -3.1700947284698486 -0.28099900484085083
-0.36412277817726135 -3.158247709274292 -0.2800047993659973
-0.36953499913215637 -3.156744956970215 -0.2799283564090729
-0.37445440888404846 -3.151120662689209 -0.27948716282844543
-0.3784317374229431 -3.137830972671509 -0.2783665955066681
-0.38316166400909424 -3.131056785583496 -0.2778245508670807
-0.3871087431907654 -3.1181509494781494 -0.2767389416694641
-0.39222103357315063 -3.1148431301116943 -0.276505708694458
-0.3963944911956787 -3.1042559146881104 -0.27562689781188965
-0.40075013041496277 -3.0953469276428223 -0.27489757537841797
-0.40579283237457275 -3.091895341873169 -0.27465352416038513
-0.4100057780742645 -3.0822789669036865 -0.27386248111724854
-0.41527989506721497 -3.0807695388793945 -0.2737923860549927
-0.4191400408744812 -3.068927526473999 -0.2728045880794525
-0.42358875274658203 -3.0616254806518555 -0.27222079038619995
-0.4275115430355072 -3.050736665725708 -0.27131858468055725
-0.4320486783981323 -3.044431447982788 -0.27082449197769165
-0.4362918436527252 -3.0362179279327393 -0.2701611816883087
-0.4397679269313812 -3.022914171218872 -0.26904532313346863
-0.44416725635528564 -3.016183614730835 -0.2685149013996124
-0.4481143355369568 -3.006561040878296 -0.26772749423980713
-0.4532312750816345 -3.004903793334961 -0.26764997839927673
-0.45818403363227844 -3.0021910667419434 -0.26747918128967285
-0.4621516466140747 -2.9931423664093018 -0.266744464635849
-0.46638253331184387 -2.9859678745269775 -0.266177237033844
-0.4706825613975525 -2.979374885559082 -0.26566237211227417
-0.47390297055244446 -2.966154098510742 -0.264556884765625
-0.47882744669914246 -2.9637551307678223 -0.2644170820713043
-0.4825761318206787 -2.954192876815796 -0.2636387050151825
-0.4870900511741638 -2.949453353881836 -0.26329123973846436
-0.49037259817123413 -2.9374215602874756 -0.2622931897640228
-0.49504563212394714 -2.933867931365967 -0.26205265522003174
-0.4985713064670563 -2.923642873764038 -0.2612167000770569
-0.5027230381965637 -2.917245864868164 -0.26072317361831665
-0.5070015788078308 -2.9116907119750977 -0.26030540466308594
-0.5119178891181946 -2.9098565578460693 -0.2602209448814392
-0.5147261023521423 -2.8961801528930664 -0.25907784700393677
-0.5200841426849365 -2.8969626426696777 -0.2592287063598633
-0.5236697793006897 -2.887937307357788 -0.2585024833679199
-0.5272829532623291 -2.8792221546173096 -0.25780439376831055
-0.5315110087394714 -2.873983860015869 -0.25741803646087646
-0.5353704690933228 -2.8668549060821533 -0.2568628489971161
-0.5398839116096497 -2.8633134365081787 -0.2566295862197876
-0.5432342886924744 -2.8537113666534424 -0.2558535933494568
-0.5462359189987183 -2.8424572944641113 -0.25492969155311584
-0.550733208656311 -2.8391060829162598 -0.2547149956226349
-0.5550256371498108 -2.8347525596618652 -0.2544109523296356
-0.5582134127616882 -2.824871063232422 -0.2536112070083618
-0.5607409477233887 -2.811840534210205 -0.2525288462638855
-0.5650096535682678 -2.807680130004883 -0.25224339962005615
-0.5712708830833435 -2.813389301300049 -0.25284552574157715
-0.5743117332458496 -2.803260564804077 -0.25202497839927673
-0.5767146944999695 -2.790205955505371 -0.2509414553642273
-0.579850971698761 -2.780878782272339 -0.2501932382583618
-0.5832290649414062 -2.7728452682495117 -0.24956172704696655
-0.5874947905540466 -2.769116163253784 -0.24931800365447998
-0.591327965259552 -2.7634117603302 -0.24889697134494781
-0.5955609679222107 -2.759639263153076 -0.248650461435318
-0.599711537361145 -2.755533456802368 -0.24837449193000793
-0.6029849052429199 -2.7474820613861084 -0.24774326384067535
-0.6074390411376953 -2.7448816299438477 -0.24760402739048004
-0.6101906895637512 -2.7346768379211426 -0.24677923321723938
-0.6134200692176819 -2.7267444133758545 -0.2461596578359604
-0.6177259087562561 -2.7236692905426025 -0.24597902595996857
-0.6213310360908508 -2.7175612449645996 -0.24552500247955322
-0.6244383454322815 -2.709373712539673 -0.24488338828086853
-0.6283590793609619 -2.7047998905181885 -0.24456876516342163
-0.6322534680366516 -2.7001678943634033 -0.2442493736743927
-0.6363643407821655 -2.6965086460113525 -0.24401848018169403
-0.637723982334137 -2.681320905685425 -0.24274447560310364
-0.6416630148887634 -2.6771116256713867 -0.24246445298194885
-0.6468032002449036 -2.6779227256774902 -0.24263979494571686
-0.6482717394828796 -2.6636180877685547 -0.2414458841085434
-0.6520748734474182 -2.6590323448181152 -0.24113301932811737
-0.6550721526145935 -2.6512365341186523 -0.24052941799163818
-0.6588639616966248 -2.6467316150665283 -0.240224689245224
-0.661909818649292 -2.6393017768859863 -0.23965486884117126
-0.6667092442512512 -2.6389048099517822 -0.23972414433956146
-0.6701486706733704 -2.633153200149536 -0.23930756747722626
-0.6727104187011719 -2.624044418334961 -0.23858609795570374
-0.6754301190376282 -2.61566162109375 -0.2379307597875595
-0.6805919408798218 -2.6167714595794678 -0.23813943564891815
-0.6828102469444275 -2.606611728668213 -0.23732298612594604
-0.6869032979011536 -2.603685140609741 -0.23716534674167633
-0.6902622580528259 -2.59801983833313 -0.23675870895385742
-0.694118857383728 -2.5942766666412354 -0.23652766644954681
-0.6983187198638916 -2.5918428897857666 -0.2364165484905243
-0.6986696720123291 -2.5752389430999756 -0.2350129336118698
-0.7025211453437805 -2.5716605186462402 -0.23479792475700378
-0.7069002985954285 -2.5700323581695557 -0.234761580824852
-0.7107768058776855 -2.566594123840332 -0.2345605194568634
-0.7139328718185425 -2.5606021881103516 -0.23412646353244781
-0.7151497602462769 -2.547765016555786 -0.23306651413440704
-0.7198857665061951 -2.5475361347198486 -0.23316018283367157
-0.7226541638374329 -2.540376663208008 -0.2326200306415558
-0.7263351082801819 -2.5364813804626465 -0.23237912356853485
-0.729057252407074 -2.529294729232788 -0.2318369597196579
-0.7312932014465332 -2.5205092430114746 -0.2311483472585678
-0.7363587617874146 -2.521510124206543 -0.23135769367218018
-0.7412346005439758 -2.521836519241333 -0.23150601983070374
-0.7406799793243408 -2.5037848949432373 -0.22996722161769867
-0.7443886399269104 -2.5002667903900146 -0.22976309061050415
-0.7467878460884094 -2.4924063682556152 -0.22916021943092346
-0.7502321600914001 -2.4880945682525635 -0.22888386249542236
-0.7546530961990356 -2.48703932762146 -0.22890761494636536
-0.7568992972373962 -2.478858232498169 -0.22827592492103577
-0.7613525986671448 -2.4779458045959473 -0.22831395268440247
-0.7638671398162842 -2.470757484436035 -0.22777415812015533
-0.766237199306488 -2.4631764888763428 -0.22719824314117432
-0.7698665261268616 -2.4596951007843018 -0.22700075805187225
-0.7750796675682068 -2.4612693786621094 -0.22727057337760925
-0.7765734791755676 -2.451068878173828 -0.2264535129070282
-0.7775659561157227 -2.4394021034240723 -0.22550071775913239
-0.7813175916671753 -2.4364633560180664 -0.22535479068756104
-0.7850662469863892 -2.4335339069366455 -0.2252102643251419
-0.7877321243286133 -2.4272866249084473 -0.2247590571641922
-0.7910754680633545 -2.4231722354888916 -0.22450561821460724
-0.7947103381156921 -2.4199776649475098 -0.22433783113956451
-0.79670649766922 -2.4118435382843018 -0.22371236979961395
-0.7998157739639282 -2.4071381092071533 -0.22340509295463562
-0.8029553294181824 -2.4025614261627197 -0.2231101095676422
-0.8073687553405762 -2.401811122894287 -0.22317098081111908
-0.8083814382553101 -2.3909945487976074 -0.22229672968387604
-0.8104313015937805 -2.383335828781128 -0.22171588242053986
-0.8127894997596741 -2.376649856567383 -0.2212255746126175
-0.8176652193069458 -2.3773434162139893 -0.22142265737056732
-0.8193919062614441 -2.368908643722534 -0.2207699567079544
-0.8239024877548218 -2.368556022644043 -0.22087080776691437
-0.8259605765342712 -2.361180305480957 -0.22031714022159576
-0.8279886245727539 -2.3537850379943848 -0.21976163983345032
-0.8316349983215332 -2.3510310649871826 -0.21963973343372345
-0.8332335948944092 -2.342534065246582 -0.21898150444030762
-0.8381631374359131 -2.3434276580810547 -0.2192014902830124
-0.8400362133979797 -2.335797071456909 -0.2186245620250702
-0.8432345390319824 -2.3318979740142822 -0.2183970808982849
-0.8456840515136719 -2.3259661197662354 -0.21797946095466614
-0.8494993448257446 -2.3238182067871094 -0.2179168313741684
-0.8493357300758362 -2.31085205078125 -0.21683962643146515
-0.8539295792579651 -2.3108835220336914 -0.2169821411371231
-0.8562789559364319 -2.304857015609741 -0.21655632555484772
-0.8590020537376404 -2.299879550933838 -0.21622923016548157
-0.8616847395896912 -2.2948310375213623 -0.21589569747447968
-0.8648165464401245 -2.2910101413726807 -0.2156779170036316
-0.8677199482917786 -2.286611318588257 -0.2154061198234558
-0.870500922203064 -2.281921863555908 -0.21510718762874603
-0.8731233477592468 -2.2768521308898926 -0.21477264165878296
-0.8736954927444458 -2.266500234603882 -0.21393972635269165
-0.8800106644630432 -2.2710611820220947 -0.21451492607593536
-0.8818342089653015 -2.2640271186828613 -0.21399562060832977
-0.8847500085830688 -2.2598395347595215 -0.21374545991420746
-0.8900107145309448 -2.2616376876831055 -0.2140621840953827
-0.8884726762771606 -2.24621319770813 -0.21274875104427338
-0.8928828239440918 -2.2458913326263428 -0.21286557614803314
-0.8936144113540649 -2.2363507747650146 -0.21210888028144836
-0.8993517756462097 -2.2393550872802734 -0.21254242956638336
-0.9020196199417114 -2.2347090244293213 -0.21225057542324066
-0.9048261046409607 -2.2304351329803467 -0.21199437975883484
-0.9049978852272034 -2.219726085662842 -0.21112635731697083
-0.9092158079147339 -2.218982458114624 -0.21120628714561462
-0.9110876321792603 -2.2125329971313477 -0.2107435017824173
-0.9130524396896362 -2.2063562870025635 -0.21030667424201965
-0.9168617725372314 -2.204660177230835 -0.21029724180698395
-0.919962465763092 -2.2012689113616943 -0.21012665331363678
-0.9222370982170105 -2.1959285736083984 -0.20977024734020233
-0.924006462097168 -2.189427137374878 -0.20930296182632446
-0.9280427098274231 -2.1883182525634766 -0.2093515247106552
-0.9294474720954895 -2.1810295581817627 -0.20880915224552155
-0.9308438301086426 -2.1737759113311768 -0.20826995372772217
-0.9341359734535217 -2.1709821224212646 -0.2081582248210907
-0.9358214735984802 -2.1644833087921143 -0.20769144594669342
-0.8893263936042786 -2.0471251010894775 -0.19657909870147705
-0.8905175924301147 -2.040113925933838 -0.19605481624603271
-0.894145667552948 -2.038710832595825 -0.19606968760490417
-0.8958204984664917 -2.0328733921051025 -0.19565840065479279
-0.8973315358161926 -2.0267066955566406 -0.1952153444290161
-0.9000481367111206 -2.0232930183410645 -0.1950375884771347
-0.9029914140701294 -2.0204036235809326 -0.19491073489189148
-0.9065104722976685 -2.0188090801239014 -0.19490927457809448
-0.9084454774856567 -2.0137031078338623 -0.1945691555738449
-0.9115726947784424 -2.0112602710723877 -0.1944865882396698
-0.9134677052497864 -2.0061192512512207 -0.1941433697938919
-0.9144874811172485 -1.9990977048873901 -0.1936180740594864
-0.9169983863830566 -1.995370626449585 -0.19341184198856354
-0.919446587562561 -1.9915270805358887 -0.19319459795951843
-0.9209058880805969 -1.9855718612670898 -0.19277255237102509
-0.9241282939910889 -1.9834403991699219 -0.19272194802761078
-0.9292314648628235 -1.9853318929672241 -0.19306308031082153
-0.9302071928977966 -1.9784132242202759 -0.19254790246486664
-0.9316597580909729 -1.972551703453064 -0.19213543832302094
-0.9329411387443542 -1.9663677215576172 -0.19169144332408905
-0.9339327812194824 -1.9596166610717773 -0.19119197130203247
-0.938980758190155 -1.9613842964172363 -0.19152408838272095
-0.941917896270752 -1.9587322473526 -0.1914253979921341
-0.9399240612983704 -1.945880651473999 -0.19032949209213257
-0.9476757049560547 -1.9532145261764526 -0.1912083774805069
-0.9472755789756775 -1.9437421560287476 -0.19044268131256104
-0.9504144191741943 -1.9415682554244995 -0.19039197266101837
-0.9505046010017395 -1.9331984519958496 -0.18973365426063538
-0.9525046348571777 -1.9287548065185547 -0.18946044147014618
-0.9550237059593201 -1.9253820180892944 -0.18929262459278107
-0.9594899415969849 -1.9259322881698608 -0.18951113522052765
-0.959858238697052 -1.918273687362671 -0.18892212212085724
-0.9651118516921997 -1.920387864112854 -0.18929599225521088
-0.9633699059486389 -1.9086097478866577 -0.1883004903793335
-0.9664565324783325 -1.90644371509552 -0.18825297057628632
-0.969831645488739 -1.904848337173462 -0.18826234340667725
-0.9739596843719482 -1.9047247171401978 -0.18841788172721863
-0.9752994179725647 -1.899158000946045 -0.18803536891937256
-0.9751442074775696 -1.8907257318496704 -0.18736876547336578
-0.9748979806900024 -1.8821752071380615 -0.18668979406356812
-0.9772268533706665 -1.8786332607269287 -0.18650740385055542
-0.9837874174118042 -1.8832075595855713 -0.18713176250457764
-0.9886910915374756 -1.8845701217651367 -0.18743839859962463
-0.9873076677322388 -1.8739734888076782 -0.18655560910701752
-0.9909631013870239 -1.8729751110076904 -0.18662816286087036
-0.9930257797241211 -1.8689731359481812 -0.1864018589258194
-0.9953104853630066 -1.8654061555862427 -0.18621912598609924
-0.995324432849884 -1.8576165437698364 -0.1856146901845932
-1.0013161897659302 -1.8609875440597534 -0.18612591922283173
-0.9998311996459961 -1.850477933883667 -0.18524909019470215
-1.0051841735839844 -1.8526440858840942 -0.1856413334608078
-1.0048993825912476 -1.8444299697875977 -0.18499375879764557
-1.0055962800979614 -1.8380637168884277 -0.1845310479402542
-1.0080565214157104 -1.8349454402923584 -0.18439438939094543
-1.0098029375076294 -1.8305442333221436 -0.18412898480892181
-1.0088303089141846 -1.8212559223175049 -0.18337157368659973
-1.0135551691055298 -1.8222728967666626 -0.1836518496274948
-1.0220873355865479 -1.8300843238830566 -0.18461865186691284
-1.0216892957687378 -1.8218928575515747 -0.18397195637226105
-1.022847056388855 -1.8165165185928345 -0.18360909819602966
-1.0264081954956055 -1.8154205083847046 -0.18367914855480194
-1.0248202085494995 -1.8052481412887573 -0.18283067643642426
-1.0288379192352295 -1.804978609085083 -0.18298500776290894
-1.026717185974121 -1.7939709424972534 -0.18205051124095917
-1.0316979885101318 -1.7953959703445435 -0.1823776215314865
-1.0342068672180176 -1.7925103902816772 -0.18226763606071472
-1.039873480796814 -1.7950847148895264 -0.18271373212337494
-1.0396260023117065 -1.7874557971954346 -0.18212167918682098
-1.0377415418624878 -1.7770698070526123 -0.1812477707862854
-1.0448373556137085 -1.7820693254470825 -0.18194346129894257
-1.044860601425171 -1.7749994993209839 -0.1814076155424118
-1.0474317073822021 -1.7722824811935425 -0.181316539645195
-1.0462067127227783 -1.7631748914718628 -0.18057136237621307
-1.0528194904327393 -1.7672816514968872 -0.18117989599704742
-1.0523043870925903 -1.759423851966858 -0.18056239187717438
-1.0570658445358276 -1.7604007720947266 -0.1808517575263977
-1.0575207471847534 -1.7542119026184082 -0.1804053634405136
-1.0583288669586182 -1.7486408948898315 -0.18002216517925262
-1.0622810125350952 -1.748273253440857 -0.18017497658729553
-1.0643304586410522 -1.7447749376296997 -0.18000566959381104
-1.0661721229553223 -1.7409502267837524 -0.1798028200864792
-1.0665401220321655 -1.7347438335418701 -0.17935386300086975
-1.0695034265518188 -1.732776165008545 -0.17934319376945496
-1.0699074268341064 -1.7266788482666016 -0.178905189037323
-1.0761997699737549 -1.730080485343933 -0.17945203185081482
-1.0761792659759521 -1.7233320474624634 -0.17894665896892548
-1.0797148942947388 -1.7222939729690552 -0.17903432250022888
-1.0823571681976318 -1.7198296785354614 -0.17897431552410126
-1.0823099613189697 -1.7131130695343018 -0.17847169935703278
-1.0809531211853027 -1.7043684720993042 -0.17775702476501465
-1.0877773761749268 -1.7085264921188354 -0.17838847637176514
-1.0872689485549927 -1.701164960861206 -0.17781777679920197
-1.0914506912231445 -1.701155662536621 -0.17801569402217865
-1.0878119468688965 -1.6889891624450684 -0.17694100737571716
-1.09486722946167 -1.6934417486190796 -0.1776074469089508
-1.0950061082839966 -1.6871891021728516 -0.1771519035100937
-1.0965490341186523 -1.6831245422363281 -0.1769258677959442
-1.1009589433670044 -1.6834602355957031 -0.17716293036937714
-1.1020138263702393 -1.6786681413650513 -0.17686080932617188
-1.105410099029541 -1.6774507761001587 -0.176935613155365
-1.1040130853652954 -1.668981909751892 -0.17624534666538239
-1.106042742729187 -1.6657229661941528 -0.1761048436164856
-1.1097981929779053 -1.6650633811950684 -0.17623968422412872
-1.1104896068572998 -1.6598145961761475 -0.1758890599012375
-1.1144685745239258 -1.6594856977462769 -0.17606012523174286
-1.1142202615737915 -1.6528739929199219 -0.17556476593017578
-1.116971731185913 -1.6507306098937988 -0.17554396390914917
-1.1159451007843018 -1.6430259943008423 -0.17493154108524323
-1.1204997301101685 -1.6435511112213135 -0.17519545555114746
-1.1229292154312134 -1.640952229499817 -0.17512713372707367
-1.123763084411621 -1.6360350847244263 -0.1748114675283432
-1.126283049583435 -1.6335853338241577 -0.17475955188274384
-1.133596420288086 -1.638066053390503 -0.17545033991336823
-1.1322325468063354 -1.6300064325332642 -0.17479854822158813
-1.1338931322097778 -1.626330018043518 -0.17461630702018738
-1.132922649383545 -1.6189063787460327 -0.1740313470363617
-1.1354001760482788 -1.6164320707321167 -0.17397817969322205
-1.1373560428619385 -1.613221287727356 -0.1738460510969162
-1.1382296085357666 -1.608490228652954 -0.173550084233284
-1.1404368877410889 -1.6056572198867798 -0.17345896363258362
-1.1396658420562744 -1.5986523628234863 -0.17291691899299622
-1.1478499174118042 -1.604200005531311 -0.17373345792293549
-1.1516196727752686 -1.6035455465316772 -0.17388005554676056
-1.1474823951721191 -1.5919115543365479 -0.17283549904823303
-1.1531888246536255 -1.59395432472229 -0.17327558994293213
-1.1514997482299805 -1.5857826471328735 -0.17260554432868958
-1.1515744924545288 -1.5800763368606567 -0.17220298945903778
-1.1533586978912354 -1.5767340660095215 -0.17205791175365448
-1.1624107360839844 -1.5833005905151367 -0.1729956716299057
-1.1620677709579468 -1.577054500579834 -0.17253461480140686
-1.1624526977539062 -1.5718234777450562 -0.1721840798854828
-1.1664913892745972 -1.5715382099151611 -0.1723756492137909
-1.1652075052261353 -1.564095377922058 -0.17178215086460114
-1.1678683757781982 -1.5619678497314453 -0.17177215218544006
-1.1701058149337769 -1.559276819229126 -0.1717005968093872
-1.1724655628204346 -1.5567528009414673 -0.1716478019952774
-1.1709482669830322 -1.549103021621704 -0.1710294634103775
-1.1763858795166016 -1.550661563873291 -0.17142802476882935
-1.1776528358459473 -1.5467162132263184 -0.1712189018726349
-1.1798943281173706 -1.5440598726272583 -0.17115260660648346
-1.1805843114852905 -1.5393847227096558 -0.1708625853061676
-1.18441903591156 -1.5388141870498657 -0.1710285097360611
-1.1851752996444702 -1.5342477560043335 -0.170750692486763
-1.1862378120422363 -1.5300941467285156 -0.1705186367034912
-1.1888176202774048 -1.5279057025909424 -0.17050579190254211
-1.1913914680480957 -1.5257103443145752 -0.17049264907836914
-1.1920884847640991 -1.5211209058761597 -0.17021210491657257
-1.1953091621398926 -1.5197583436965942 -0.17029288411140442
-1.1917150020599365 -1.5097569227218628 -0.16940505802631378
-1.1965270042419434 -1.5104235410690308 -0.16971398890018463
-1.2020691633224487 -1.5119887590408325 -0.17012540996074677
-1.1940280199050903 -1.4965038299560547 -0.1686173677444458
-1.202347755432129 -1.5015465021133423 -0.16942180693149567
-1.2041494846343994 -1.498427391052246 -0.16930681467056274
-1.20261549949646 -1.4911795854568481 -0.16872484982013702
-1.2052574157714844 -1.489127516746521 -0.1687304973602295
-1.2080343961715698 -1.4872417449951172 -0.16875553131103516
-1.2088130712509155 -1.4829027652740479 -0.16850239038467407
-1.2145456075668335 -1.4846351146697998 -0.16893991827964783
-1.2129225730895996 -1.4773808717727661 -0.16835515201091766
-1.213409662246704 -1.4727240800857544 -0.1680656224489212
-1.2183855772018433 -1.4735140800476074 -0.16839826107025146
-1.2207844257354736 -1.4711778163909912 -0.16837456822395325
-1.2216757535934448 -1.467032551765442 -0.16814400255680084
-1.2281862497329712 -1.469625473022461 -0.16868668794631958
-1.2239913940429688 -1.4594203233718872 -0.16776032745838165
-1.2275199890136719 -1.4584486484527588 -0.16789473593235016
-1.2279446125030518 -1.453794002532959 -0.1676054149866104
-1.2304381132125854 -1.4515975713729858 -0.16759958863258362
-1.2299553155899048 -1.445902705192566 -0.16718974709510803
-1.2326264381408691 -1.4439274072647095 -0.1672099232673645
-1.2352207899093628 -1.4418613910675049 -0.1672201305627823
-1.236844539642334 -1.4386656284332275 -0.16709966957569122
-1.2393304109573364 -1.436476469039917 -0.16709646582603455
-1.2402355670928955 -1.4324617385864258 -0.16688105463981628
-1.2402645349502563 -1.4274516105651855 -0.16654936969280243
-1.2506847381591797 -1.4343788623809814 -0.16761213541030884
-1.2502529621124268 -1.428840160369873 -0.16721969842910767
-1.2517685890197754 -1.4255427122116089 -0.1670892983675003
-1.2539877891540527 -1.4230514764785767 -0.16705365478992462
-1.2530107498168945 -1.4169479608535767 -0.16659370064735413
-1.2516508102416992 -1.410440444946289 -0.16608525812625885
-1.2573866844177246 -1.411931037902832 -0.16651901602745056
-1.2593097686767578 -1.4091296195983887 -0.16644765436649323
-1.2637672424316406 -1.4091582298278809 -0.16671139001846313
-1.255350112915039 -1.394865870475769 -0.1652795523405075
-1.2604821920394897 -1.3956602811813354 -0.1656341850757599
-1.263645887374878 -1.3942620754241943 -0.1657298058271408
-1.2657780647277832 -1.3917239904403687 -0.16569054126739502
-1.2665287256240845 -1.3876744508743286 -0.1654714196920395
-1.275951623916626 -1.393106460571289 -0.1663845181465149
-1.2716445922851562 -1.3835467100143433 -0.16550765931606293
-1.2689552307128906 -1.375792145729065 -0.16484476625919342
-1.2726433277130127 -1.3749663829803467 -0.16501179337501526
-1.2801685333251953 -1.3782620429992676 -0.16567526757717133
-1.2813453674316406 -1.3747080564498901 -0.1655167043209076
-1.2835570573806763 -1.3722697496414185 -0.1654926836490631
-1.2814233303070068 -1.3652033805847168 -0.16491003334522247
-1.2831447124481201 -1.3622634410858154 -0.16482526063919067
-1.285720944404602 -1.3602327108383179 -0.1648508757352829
-1.280493140220642 -1.3499730825424194 -0.1638781577348709
-1.2849373817443848 -1.3499306440353394 -0.1641450822353363
-1.288000464439392 -1.3484269380569458 -0.16423539817333221
-1.2923017740249634 -1.3482097387313843 -0.16448348760604858
-1.293484091758728 -1.3447357416152954 -0.16433490812778473
-1.2971205711364746 -1.3438128232955933 -0.16449861228466034
-1.3022488355636597 -1.3444205522537231 -0.16485105454921722
-1.2967115640640259 -1.3340357542037964 -0.16385501623153687
-1.3011447191238403 -1.333929181098938 -0.16412068903446198
-1.3017300367355347 -1.32987642288208 -0.1639014035463333
-1.3034924268722534 -1.3270343542099 -0.16383135318756104
-1.3087159395217896 -1.3277076482772827 -0.16419629752635956
-1.3057805299758911 -1.320111870765686 -0.1635386049747467
-1.3092842102050781 -1.3190401792526245 -0.1636887639760971
-1.309192419052124 -1.3143503665924072 -0.1633901596069336
-1.30660080909729 -1.3071764707565308 -0.16278167068958282
-1.312210202217102 -1.3082125186920166 -0.16319572925567627
-1.3157224655151367 -1.307141900062561 -0.1633484661579132
-1.313025712966919 -1.2999159097671509 -0.16273166239261627
-1.3145883083343506 -1.2969262599945068 -0.16264447569847107
-1.3230935335159302 -1.300766944885254 -0.16341553628444672
-1.32057523727417 -1.2937650680541992 -0.16282528638839722
-1.3240514993667603 -1.2926483154296875 -0.16297541558742523
-1.3238211870193481 -1.2879172563552856 -0.1626700609922409
-1.3280231952667236 -1.287500023841858 -0.16290993988513947
-1.325438380241394 -1.280512809753418 -0.1623183786869049
-1.3233568668365479 -1.2740426063537598 -0.16179083287715912
-1.330917239189148 -1.2768516540527344 -0.1624423712491989
-1.3316446542739868 -1.2730923891067505 -0.16225963830947876
-1.3383127450942993 -1.2750028371810913 -0.16280066967010498
-1.3344085216522217 -1.2668465375900269 -0.16205643117427826
-1.3346879482269287 -1.2626889944076538 -0.16182240843772888
-1.3428524732589722 -1.2659777402877808 -0.1625441014766693
-1.3440182209014893 -1.2626521587371826 -0.16241812705993652
-1.341933012008667 -1.256290078163147 -0.1619008630514145
-1.3465251922607422 -1.2561851739883423 -0.1621900498867035
-1.344587802886963 -1.2499945163726807 -0.16169358789920807
-1.347098708152771 -1.247951626777649 -0.16173329949378967
-1.3478690385818481 -1.2442996501922607 -0.16156472265720367
-1.3555850982666016 -1.2470464706420898 -0.16222842037677765
-1.3535876274108887 -1.240852952003479 -0.1617298722267151
-1.3544048070907593 -1.2372573614120483 -0.16156917810440063
-1.3517001867294312 -1.2304644584655762 -0.16099002957344055
-1.3615657091140747 -1.235105276107788 -0.16190798580646515
-1.3640704154968262 -1.2330431938171387 -0.16194958984851837
-1.3641794919967651 -1.228821039199829 -0.16170759499073029
-1.3747937679290771 -1.2340413331985474 -0.16271017491817474
-1.391131043434143 -1.2443273067474365 -0.16438637673854828
-1.4068446159362793 -1.253968358039856 -0.16598425805568695
-1.4104881286621094 -1.2528040409088135 -0.1661558300256729
-1.408327579498291 -1.2464934587478638 -0.16564470529556274
-1.410003900527954 -1.2435939311981201 -0.16558626294136047
-1.4103684425354004 -1.2395446300506592 -0.16537469625473022
-1.4117637872695923 -1.236409306526184 -0.16528494656085968
-1.4150255918502808 -1.2349073886871338 -0.16541416943073273
-1.420754075050354 -1.2355438470840454 -0.16583141684532166
-1.424999713897705 -1.2348734140396118 -0.16607508063316345
-1.43096125125885 -1.235671877861023 -0.1665181815624237
-1.449238896369934 -1.2470450401306152 -0.16839152574539185
-1.4662939310073853 -1.2572720050811768 -0.17011789977550507
-1.4654977321624756 -1.252156376838684 -0.16977164149284363
-1.4654604196548462 -1.2477048635482788 -0.1695147305727005
-1.465997576713562 -1.243754267692566 -0.16932544112205505
-1.4708093404769897 -1.243427038192749 -0.16963021457195282
-1.472671389579773 -1.2405991554260254 -0.1695949137210846
-1.4748516082763672 -1.2380402088165283 -0.1695968210697174
-1.4781244993209839 -1.2363951206207275 -0.169724702835083
-1.4785877466201782 -1.2324016094207764 -0.16953058540821075
-1.479554295539856 -1.2288360595703125 -0.16939517855644226
-1.4810597896575928 -1.2257235050201416 -0.16932229697704315
-1.4824098348617554 -1.2224864959716797 -0.16923238337039948
-1.4791167974472046 -1.215438723564148 -0.1686139553785324
-1.4878302812576294 -1.2182537317276 -0.1693645417690277
-1.4849063158035278 -1.2115352153778076 -0.16879066824913025
-1.4949778318405151 -1.2154114246368408 -0.16969405114650726
-1.4938936233520508 -1.2102042436599731 -0.1693309098482132
-1.495508074760437 -1.2071938514709473 -0.16927476227283478
-1.4921458959579468 -1.200183629989624 -0.16865678131580353
-1.4961495399475098 -1.1991080045700073 -0.1688724309206009
-1.4941191673278809 -1.1932027339935303 -0.1684078872203827
-1.493111252784729 -1.1881346702575684 -0.16806022822856903
-1.5053714513778687 -1.1936042308807373 -0.16920538246631622
-1.5026787519454956 -1.1872024536132812 -0.16866950690746307
-1.5057083368301392 -1.1853324174880981 -0.16877703368663788
-1.5035196542739868 -1.17936372756958 -0.16830064356327057
-1.5095179080963135 -1.179817795753479 -0.16874125599861145
-1.508899450302124 -1.1750967502593994 -0.16844254732131958
-1.5160554647445679 -1.17642343044281 -0.16901184618473053
-1.5167804956436157 -1.1727492809295654 -0.1688641756772995
-1.514541506767273 -1.1667990684509277 -0.16838787496089935
-1.5139837265014648 -1.1621631383895874 -0.1681000292301178
-1.5137759447097778 -1.1578092575073242 -0.1678522676229477
-1.5159229040145874 -1.1552622318267822 -0.16786642372608185
-1.5229027271270752 -1.1563842296600342 -0.16841553151607513
-1.5274784564971924 -1.1556600332260132 -0.16869817674160004
-1.5239012241363525 -1.1487756967544556 -0.1680813431739807
-1.5303926467895508 -1.149484634399414 -0.1685757339000702
-1.5268990993499756 -1.142696499824524 -0.1679709106683731
-1.5261180400848389 -1.1379609107971191 -0.16766618192195892
-1.5327427387237549 -1.138742446899414 -0.1681753247976303
-1.5321317911148071 -1.1341426372528076 -0.16789080202579498
-1.535796046257019 -1.1327099800109863 -0.16807536780834198
-1.5329219102859497 -1.1264636516571045 -0.167545348405838
-1.5372817516326904 -1.1255396604537964 -0.16780684888362885
-1.53950834274292 -1.123046636581421 -0.16783562302589417
-1.5448243618011475 -1.1227977275848389 -0.16820122301578522
-1.540401577949524 -1.115478515625 -0.1675073802471161
-1.5472755432128906 -1.1163437366485596 -0.16804267466068268
-1.5495290756225586 -1.1138614416122437 -0.16807597875595093
-1.5516449213027954 -1.1112788915634155 -0.16809478402137756
-1.5518862009048462 -1.1073577404022217 -0.16791123151779175
-1.5492979288101196 -1.1014339923858643 -0.16742287576198578
-1.557124376296997 -1.1029107570648193 -0.1680602878332138
-1.5605043172836304 -1.1012187004089355 -0.16821734607219696
-1.5578606128692627 -1.0952839851379395 -0.16772598028182983
-1.5593146085739136 -1.0922433137893677 -0.16767697036266327
-1.4642820358276367 -1.021870493888855 -0.1572658121585846
-1.4560774564743042 -1.0123692750930786 -0.1561945527791977
-1.4575287103652954 -1.009608268737793 -0.15616092085838318
-1.4593812227249146 -1.007125735282898 -0.1561707854270935
-1.4621630907058716 -1.005281686782837 -0.15628042817115784
-1.4662201404571533 -1.0043058395385742 -0.15652641654014587
-1.4595110416412354 -0.9959713220596313 -0.15562433004379272
-1.4677648544311523 -0.9978525042533875 -0.15631842613220215
-1.4756364822387695 -0.9994415640830994 -0.15697069466114044
-1.574130654335022 -1.0621471405029297 -0.16725049912929535
-1.580371618270874 -1.0623477697372437 -0.16771627962589264
-1.5749595165252686 -1.0547223091125488 -0.16694626212120056
-1.4818207025527954 -0.9886060953140259 -0.15689031779766083
-1.4798604249954224 -0.9835691452026367 -0.15650072693824768
-1.4629021883010864 -0.9686201810836792 -0.15452826023101807
-1.4637559652328491 -0.9655139446258545 -0.15444016456604004
-1.4602186679840088 -0.9595264792442322 -0.1538899540901184
-1.4536428451538086 -0.9515759944915771 -0.15302163362503052
-1.4567140340805054 -0.9499576687812805 -0.1531701236963272
-1.4546037912368774 -0.944966197013855 -0.15277452766895294
-1.4518370628356934 -0.9395685791969299 -0.15231144428253174
-1.4532352685928345 -0.9368778467178345 -0.15228629112243652
-1.4458646774291992 -0.9285569190979004 -0.15134382247924805
-1.4547861814498901 -0.9307031035423279 -0.1521073579788208
-1.4495023488998413 -0.9237604737281799 -0.1513860523700714
-1.4500963687896729 -0.920583188533783 -0.1512800008058548
-1.4480581283569336 -0.91574627161026 -0.15090034902095795
-1.4485522508621216 -0.9125223755836487 -0.15078559517860413
-1.4488584995269775 -0.9091859459877014 -0.15065202116966248
-1.4518882036209106 -0.9075581431388855 -0.15080206096172333
-1.4504740238189697 -0.9031563401222229 -0.15049119293689728
-1.4532191753387451 -0.9013487696647644 -0.15061251819133759
-1.4537899494171143 -0.8981921076774597 -0.15050891041755676
-1.4543343782424927 -0.8950240612030029 -0.15040327608585358
-1.4511767625808716 -0.8895915746688843 -0.1499158889055252
-1.4548852443695068 -0.8883742094039917 -0.15013854205608368
-1.4526236057281494 -0.8835153579711914 -0.14974576234817505
-1.4580856561660767 -0.8833540081977844 -0.1501496136188507
-1.4551421403884888 -0.8781015872955322 -0.14968840777873993
-1.458032488822937 -0.8763770461082458 -0.14982812106609344
-1.4575300216674805 -0.8726147413253784 -0.1496196985244751
-1.466379165649414 -0.8744387030601501 -0.15037116408348083
-1.461709976196289 -0.8681986331939697 -0.1497367024421692
