-8.791448593139648 11.421976089477539 0.2532672584056854
-8.925451278686523 11.638053894042969 0.25771260261535645
-9.061781883239746 11.858633041381836 0.26224637031555176
-9.115790367126465 11.972578048706055 0.26441386342048645
-9.257607460021973 12.202980995178223 0.2691449522972107
-9.318780899047852 12.32825756072998 0.2715487778186798
-9.464702606201172 12.566851615905762 0.2764397859573364
-9.529975891113281 12.69959545135498 0.2789934277534485
-9.689480781555176 12.959216117858887 0.28432488441467285
-9.862757682800293 13.239096641540527 0.2900872230529785
-9.923954010009766 13.36989974975586 0.2925732433795929
-10.108572006225586 13.668418884277344 0.2987191081047058
-10.180654525756836 13.816275596618652 0.301561564207077
-10.385429382324219 14.14582347869873 0.30835825204849243
-10.385272026062012 14.197500228881836 0.3090890347957611
-10.362981796264648 14.219056129455566 0.3091639578342438
-10.330199241638184 14.226187705993652 0.30892643332481384
-10.309444427490234 14.249863624572754 0.30904924869537354
-10.280720710754395 14.262526512145996 0.30893415212631226
-10.250081062316895 14.272481918334961 0.30876171588897705
-10.223111152648926 14.287508964538574 0.30870023369789124
-10.201186180114746 14.309589385986328 0.3087920546531677
-10.17087173461914 14.319890975952148 0.30863070487976074
-10.147764205932617 14.34032154083252 0.3086887300014496
-10.11640739440918 14.349072456359863 0.3084964454174042
-10.095813751220703 14.373079299926758 0.3086331784725189
-10.062934875488281 14.37957763671875 0.30839502811431885
-10.040154457092285 14.400479316711426 0.3084668815135956
-10.009936332702637 14.410697937011719 0.30831098556518555
-9.98796272277832 14.432774543762207 0.30840975046157837
-9.957342147827148 14.44234561920166 0.3082423508167267
-9.934247970581055 14.462815284729004 0.30830860137939453
-9.903402328491211 14.471981048583984 0.30813494324684143
-9.783376693725586 14.350275039672852 0.30517950654029846
-9.754559516906738 14.36181354522705 0.3050622344017029
-9.760432243347168 14.424576759338379 0.3060329854488373
-9.721436500549316 14.421125411987305 0.30559924244880676
-9.701586723327637 14.446029663085938 0.30576759576797485
-9.64725112915039 14.419447898864746 0.3048480153083801
-9.612221717834473 14.421504020690918 0.30453625321388245
-9.59029483795166 14.443181037902832 0.3046399652957916
-9.561659812927246 14.454752922058105 0.3045314848423004
-9.53744888305664 14.473000526428223 0.3045646548271179
-9.514443397521973 14.493096351623535 0.3046375513076782
-9.471941947937012 14.483407020568848 0.3040858507156372
-9.48327350616455 14.556148529052734 0.30526500940322876
-9.456609725952148 14.570775985717773 0.30522507429122925
-9.434454917907715 14.592363357543945 0.3053317964076996
-9.405620574951172 14.603618621826172 0.3052232563495636
-9.382208824157715 14.623287200927734 0.3052915036678314
-9.326589584350586 14.5925874710083 0.30431023240089417
-9.29885196685791 14.605317115783691 0.30423668026924133
-9.276260375976562 14.626134872436523 0.3043324947357178
-9.253345489501953 14.646476745605469 0.3044191598892212
-9.21042537689209 14.635062217712402 0.3038472533226013
-9.222224235534668 14.710718154907227 0.3050832450389862
-9.189305305480957 14.715229988098145 0.3048436641693115
-9.168811798095703 14.739625930786133 0.30501696467399597
-9.120954513549805 14.719926834106445 0.3042793571949005
-9.118152618408203 14.772947311401367 0.30504581332206726
-9.064703941345215 14.743880271911621 0.3041183650493622
-9.046401977539062 14.7718505859375 0.30436909198760986
-9.000923156738281 14.755366325378418 0.30370521545410156
-9.00960922241211 14.827771186828613 0.30487126111984253
-8.980342864990234 14.837916374206543 0.3047570288181305
-8.961447715759277 14.865219116210938 0.3049960434436798
-8.906634330749512 14.83280086517334 0.30401137471199036
-8.910486221313477 14.898086547851562 0.3050301671028137
-8.852798461914062 14.860466957092285 0.303943008184433
-8.851407051086426 14.917299270629883 0.3047889173030853
-8.803048133850098 14.894991874694824 0.30401864647865295
-8.803165435791016 14.95473575592041 0.3049239218235016
-8.751136779785156 14.925894737243652 0.3040238916873932
-8.750992774963379 14.98554801940918 0.3049272894859314
-8.698195457458496 14.95503044128418 0.30399686098098755
-8.695137977600098 15.010008811950684 0.3048053979873657
-8.64664363861084 14.986556053161621 0.3040221333503723
-8.645683288574219 15.045510292053223 0.30491146445274353
-8.32253360748291 14.541864395141602 0.29440969228744507
-8.301581382751465 14.564175605773926 0.2945675253868103
-8.271526336669922 14.570514678955078 0.29440322518348694
-8.246094703674316 14.584966659545898 0.29440388083457947
-8.22169017791748 14.601241111755371 0.29444220662117004
-8.198424339294434 14.619563102722168 0.29452261328697205
-8.16997241973877 14.628632545471191 0.29441753029823303
-8.148439407348633 14.65009593963623 0.29456275701522827
-8.121034622192383 14.66102123260498 0.29449689388275146
-8.09350299835205 14.671688079833984 0.29442691802978516
-8.065529823303223 14.681525230407715 0.2943412959575653
-8.049296379089355 14.712782859802246 0.2946857810020447
-8.017027854919434 14.714754104614258 0.2944444715976715
-7.98862361907959 14.723746299743652 0.29434487223625183
-7.971523284912109 14.753617286682129 0.29466336965560913
-7.941916465759277 14.760379791259766 0.2945210635662079
-7.918699741363525 14.779007911682129 0.2946164608001709
-7.889190196990967 14.785882949829102 0.29447850584983826
-7.859654903411865 14.792651176452637 0.2943395674228668
-7.839057445526123 14.816253662109375 0.29453644156455994
-7.813869953155518 14.83122730255127 0.2945624887943268
-7.794104099273682 14.856547355651855 0.2947946786880493
-7.765862464904785 14.865742683410645 0.29470765590667725
-8.079089164733887 15.531343460083008 0.30762284994125366
-8.050162315368652 15.541949272155762 0.30755409598350525
-8.027435302734375 15.564546585083008 0.3077234625816345
-7.999032974243164 15.576167106628418 0.30767664313316345
-7.9742655754089355 15.594876289367676 0.3077707290649414
-7.943642616271973 15.60212516784668 0.30763962864875793
-7.897420883178711 15.578546524047852 0.3069024085998535
-7.862429618835449 15.576892852783203 0.3065989315509796
-7.829505443572998 15.579217910766602 0.3063751757144928
-7.794501304626465 15.577286720275879 0.30606913566589355
-7.762220859527588 15.580687522888184 0.3058692216873169
-7.729918003082275 15.583951950073242 0.3056679368019104
-7.692063808441162 15.575887680053711 0.30524587631225586
-7.6616435050964355 15.582751274108887 0.30511781573295593
-7.626162528991699 15.579219818115234 0.3047874867916107
-7.590573787689209 15.5753173828125 0.30445143580436707
-7.561605930328369 15.584907531738281 0.3043803870677948
-7.526899337768555 15.582585334777832 0.3040779232978821
-7.494774341583252 15.585494041442871 0.30387887358665466
-7.462408542633057 15.587806701660156 0.3036695122718811
-7.428067684173584 15.585880279541016 0.3033788800239563
-7.3911519050598145 15.578392028808594 0.30298149585723877
-7.361126899719238 15.585307121276855 0.302865594625473
-7.327411651611328 15.584321022033691 0.30259737372398376
-7.290056228637695 15.575431823730469 0.30217719078063965
-7.259700298309326 15.581367492675781 0.302046000957489
-7.228187084197998 15.584746360778809 0.30186641216278076
-7.193449974060059 15.58105754852295 0.3015512526035309
-4.865272521972656 10.586737632751465 0.20472794771194458
-4.840158939361572 10.580735206604004 0.2044481486082077
-4.8160929679870605 10.576900482177734 0.2042112797498703
-4.797827243804932 10.585749626159668 0.20422008633613586
-4.786459445953369 10.609892845153809 0.20452433824539185
-4.779011249542236 10.642911911010742 0.20499971508979797
-7.071267604827881 15.821651458740234 0.3045123517513275
-7.044096946716309 15.835010528564453 0.30453231930732727
-7.01700496673584 15.848557472229004 0.30455678701400757
-5.079314708709717 11.526420593261719 0.22132889926433563
-6.967869281768799 15.887198448181152 0.3048299551010132
-4.85930061340332 11.132320404052734 0.2134343385696411
-4.833324432373047 11.125746726989746 0.2131461799144745
-4.809875011444092 11.124873161315918 0.21296826004981995
-4.7936906814575195 11.14079475402832 0.21311251819133759
-4.780280113220215 11.1632661819458 0.21338240802288055
-4.365504264831543 10.244037628173828 0.1956656575202942
-4.348006248474121 10.252569198608398 0.1956833302974701
-4.328210830688477 10.255666732788086 0.19559793174266815
-6.547460556030273 15.59008502960205 0.2971184551715851
-6.525390148162842 15.613832473754883 0.29735347628593445
-6.497832775115967 15.624506950378418 0.2973402738571167
-4.86474609375 11.755474090576172 0.22354914247989655
-4.833016872406006 11.7367525100708 0.22303234040737152
-4.8123321533203125 11.744715690612793 0.2230236679315567
-4.650294303894043 11.405970573425293 0.21643665432929993
-4.625092029571533 11.401050567626953 0.21618972718715668
-4.604689598083496 11.407891273498535 0.2161666750907898
-4.5857834815979 11.41844367980957 0.2162146121263504
-4.346569538116455 10.87768268585205 0.20583100616931915
-4.321732521057129 10.870565414428711 0.20555323362350464
-4.301105976104736 10.873942375183105 0.20547479391098022
-4.286123752593994 10.891620635986328 0.2056671380996704
-4.273959636688232 10.916601181030273 0.20599763095378876
-4.305971622467041 11.055181503295898 0.20847049355506897
-4.244148254394531 10.952959060668945 0.20640280842781067
-4.183381080627441 10.852333068847656 0.20436863601207733
-4.126505374908447 10.760726928710938 0.20250755548477173
-4.068572044372559 10.665311813354492 0.20057795941829681
-3.9740827083587646 10.47248363494873 0.19682073593139648
-3.9196572303771973 10.383675575256348 0.19502274692058563
-3.8651130199432373 10.293535232543945 0.19320273399353027
-3.70340895652771 9.91545295715332 0.1859847456216812
-3.654656410217285 9.837285041809082 0.1843986064195633
-2.481137752532959 6.714394569396973 0.12577904760837555
-2.467029094696045 6.71223258972168 0.12565767765045166
-2.4568092823028564 6.720638751983643 0.12573455274105072
-2.4476141929626465 6.731908321380615 0.12586525082588196
-3.3870840072631836 9.366711616516113 0.1750168651342392
-3.33975887298584 9.28650188446045 0.17340895533561707
-3.2957522869110107 9.21462345123291 0.1719590425491333
-3.2516324520111084 9.141566276550293 0.17048949003219604
-3.21753191947937 9.09595775604248 0.1695338785648346
-3.2024266719818115 9.103777885437012 0.16957515478134155
-3.1909704208374023 9.122053146362305 0.16981154680252075
-3.1483635902404785 9.050920486450195 0.16838479042053223
-3.1070964336395264 8.982792854309082 0.1670161783695221
-3.0672857761383057 8.918065071105957 0.1657128781080246
-3.0277791023254395 8.853425979614258 0.16441328823566437
-3.014000654220581 8.863646507263184 0.16450512409210205
-2.999514102935791 8.87182903289795 0.16455955803394318
-2.984694480895996 8.879055976867676 0.16459670662879944
-2.972071886062622 8.892879486083984 0.16475653648376465
-2.9562432765960693 8.89715576171875 0.16473987698554993
-2.9415571689605713 8.904879570007324 0.16478756070137024
-2.9286770820617676 8.918134689331055 0.16493797302246094
-2.91349196434021 8.924424171447754 0.16495998203754425
-2.8981850147247314 8.930353164672852 0.16497580707073212
-2.8828587532043457 8.936232566833496 0.16499118506908417
-2.86958646774292 8.948527336120605 0.16512544453144073
-1.748565435409546 5.485649585723877 0.10116913169622421
-1.7323317527770996 5.467691898345947 0.10078202188014984
-1.7183641195297241 5.456673622131348 0.10052348673343658
-1.7050704956054688 5.44763708114624 0.10030201822519302
-1.6932424306869507 5.443164348602295 0.10016508400440216
-1.683409333229065 5.445051670074463 0.10014557838439941
-1.5852818489074707 5.159557342529297 0.09484372287988663
-1.5643545389175415 5.123288154602051 0.09412666410207748
-1.557389736175537 5.132543087005615 0.09424660354852676
-1.548075795173645 5.134089946746826 0.09422522783279419
-1.5402045249938965 5.140436172485352 0.09429221600294113
-1.5302836894989014 5.139945983886719 0.09423407167196274
-1.5236060619354248 5.1503777503967285 0.09437641501426697
-2.0107855796813965 6.841116905212402 0.1252932995557785
-1.9971657991409302 6.838886737823486 0.125188410282135
-1.9840383529663086 6.838278770446777 0.12511368095874786
-1.9720464944839478 6.841556549072266 0.12511046230793
-1.959851861000061 6.844124794006348 0.12509466707706451
-1.9494472742080688 6.852973937988281 0.1251940131187439
-1.84490966796875 6.528777122497559 0.11921238899230957
-1.8272502422332764 6.5096917152404785 0.11880546063184738
-1.8160215616226196 6.513369560241699 0.11881454288959503
-1.8006314039230347 6.50202751159668 0.11855011433362961
-1.7881511449813843 6.5010666847229 0.11847549676895142
-1.7765811681747437 6.503381729125977 0.1184609904885292
-1.7668461799621582 6.512450218200684 0.11856980621814728
-1.758363127708435 6.526247501373291 0.11876493692398071
-1.7476255893707275 6.531769752502441 0.11880972236394882
-1.7330461740493774 6.522866249084473 0.11859256774187088
-1.7161247730255127 6.504916667938232 0.11821156740188599
-1.7025045156478882 6.499270439147949 0.11805476993322372
-1.6956233978271484 6.519411087036133 0.11836665868759155
-1.6856199502944946 6.527709007263184 0.11846370249986649
-1.6748424768447876 6.533064842224121 0.11850766092538834
-1.6638963222503662 6.5377936363220215 0.11854057013988495
-1.6522934436798096 6.539949893951416 0.11852718144655228
-1.6423945426940918 6.548890113830566 0.11863705515861511
-1.46124267578125 5.869977951049805 0.10629178583621979
-1.4467928409576416 5.855523109436035 0.1059841439127922
-1.4328498840332031 5.842878341674805 0.10570982843637466
-1.420545220375061 5.836734771728516 0.10555364936590195
-1.4103050231933594 5.839005947113037 0.10555004328489304
-1.3980720043182373 5.83296012878418 0.10539647191762924
-1.3902642726898193 5.845388889312744 0.1055770292878151
-1.38153076171875 5.854051113128662 0.10568975657224655
-1.3707494735717773 5.854066848754883 0.10564667731523514
-1.3625026941299438 5.864953994750977 0.10580006241798401
-1.3550505638122559 5.879425048828125 0.10601828247308731
-1.9091899394989014 8.350364685058594 0.1505141407251358
-1.8951566219329834 8.356100082397461 0.15055765211582184
-1.8817789554595947 8.364789962768555 0.15065479278564453
-1.8669102191925049 8.366886138916016 0.15063361823558807
-1.8538715839385986 8.377232551574707 0.15076139569282532
-1.8413236141204834 8.389933586120605 0.15093189477920532
-1.8261220455169678 8.39060115814209 0.15088631212711334
-1.812509536743164 8.398590087890625 0.15097284317016602
-1.799597144126892 8.409932136535645 0.15112000703811646
-1.7852498292922974 8.414651870727539 0.15114860236644745
-1.7712936401367188 8.421259880065918 0.15121151506900787
-1.7582579851150513 8.432343482971191 0.15135517716407776
-1.205039381980896 5.830106735229492 0.10460876673460007
-1.1076706647872925 5.4066267013549805 0.09697549045085907
-1.0964106321334839 5.399592399597168 0.0968148335814476
-1.0873017311096191 5.403086185455322 0.09684329479932785
-1.0792605876922607 5.411962509155273 0.09696847945451736
-1.0692955255508423 5.411231517791748 0.09692177921533585
-1.0607521533966064 5.417713165283203 0.09700455516576767
-1.1195881366729736 5.771631717681885 0.10330633819103241
-1.1112079620361328 5.782412052154541 0.10346441715955734
-1.102042555809021 5.789235591888428 0.10355192422866821
-1.0955698490142822 5.810433864593506 0.10389672964811325
-1.1349849700927734 6.077730178833008 0.10864067077636719
-1.118227481842041 6.046473979949951 0.10804690420627594
-1.102872610092163 6.02222204208374 0.10757897049188614
-1.0875149965286255 5.997434616088867 0.10710208863019943
-1.070981502532959 5.965560436248779 0.1064993366599083
-1.0562946796417236 5.943392753601074 0.10607050359249115
-1.0413129329681396 5.919057369232178 0.10560359060764313
-1.0265363454818726 5.895359516143799 0.10514865070581436
-1.0109217166900635 5.866266250610352 0.10459811240434647
-0.9966686367988586 5.84450626373291 0.10417894273996353
-0.9823859930038452 5.822071075439453 0.10374829918146133
-0.9667374491691589 5.790934085845947 0.1031632125377655
-0.952166736125946 5.765610694885254 0.10268231481313705
-0.9372230172157288 5.737411022186279 0.1021507978439331
-0.9246196150779724 5.723034858703613 0.10186595469713211
-0.9129626154899597 5.714223861694336 0.10168059170246124
-0.9019567966461182 5.709299087524414 0.10156477987766266
-0.8929733037948608 5.717172622680664 0.10167696326971054
-0.8843399286270142 5.7274603843688965 0.101832315325737
-0.8726475238800049 5.717909336090088 0.10163525491952896
-0.8634889125823975 5.7248945236206055 0.10173246264457703
-0.8551998138427734 5.737844944000244 0.10193590819835663
-0.8451428413391113 5.739068031311035 0.10193127393722534
-0.8357909321784973 5.745131015777588 0.10201289504766464
-0.8278880715370178 5.761392593383789 0.10227581858634949
-0.8179138898849487 5.763431072235107 0.10228649526834488
-0.8082574605941772 5.767752170562744 0.10233798623085022
-0.7994293570518494 5.778135299682617 0.10249730199575424
-0.7898014783859253 5.782896995544434 0.10255714505910873
-0.7808066606521606 5.792443752288818 0.10270212590694427
-0.7713118195533752 5.798450469970703 0.10278459638357162
-0.7609795331954956 5.7982025146484375 0.10275650024414062
-0.6825219988822937 5.271719932556152 0.09340483695268631
-0.6704407334327698 5.250374794006348 0.09300576150417328
-0.6616963744163513 5.254895210266113 0.09306523203849792
-0.6532289981842041 5.26174259185791 0.09316616505384445
-0.6438164114952087 5.261031627655029 0.09313353896141052
-0.7034331560134888 5.832634925842285 0.10323045402765274
-0.6939350962638855 5.839624881744385 0.10333257168531418
-0.6846692562103271 5.848773002624512 0.10347313433885574
-0.6743761301040649 5.849254608154297 0.10346066951751709
-0.6646062135696411 5.854323387145996 0.10352964699268341
-0.654457688331604 5.856128692626953 0.10354121029376984
-0.6449988484382629 5.864224910736084 0.10366429388523102
-0.6359393000602722 5.876238822937012 0.1038568764925003
-0.6254941821098328 5.875599384307861 0.1038261204957962
-0.6163097023963928 5.886942386627197 0.10400738567113876
-0.6066646575927734 5.894163131713867 0.10411609709262848
-0.5966113209724426 5.8975629806518555 0.10415758937597275
-0.5872172117233276 5.907678127288818 0.10431797057390213
-0.5768541693687439 5.908198833465576 0.10430921614170074
-0.5668044686317444 5.91196870803833 0.10435815155506134
-0.5568820834159851 5.917196273803711 0.1044331043958664
-0.5475100874900818 5.9285454750061035 0.10461637377738953
-0.5374550223350525 5.932758331298828 0.10467400401830673
-0.5273065567016602 5.936049938201904 0.10471567511558533
-0.5174117684364319 5.942350387573242 0.10481072217226028
-0.5072343945503235 5.945561408996582 0.10485158115625381
-0.4977354109287262 5.95698881149292 0.1050376296043396
-0.48777955770492554 5.963285446166992 0.10513347387313843
-0.4775542616844177 5.96645450592041 0.1051744893193245
-0.467515230178833 5.972107887268066 0.10525959730148315
-0.45756036043167114 5.979083061218262 0.10536829382181168
-0.44778338074684143 5.98872709274292 0.10552431643009186
-0.4375029504299164 5.9919023513793945 0.10556664317846298
-0.4273691773414612 5.997254848480225 0.10564763844013214
-0.4173199534416199 6.004056453704834 0.10575445741415024
-0.40729862451553345 6.0115838050842285 0.10587435215711594
-0.39688393473625183 6.013513565063477 0.1058959811925888
-0.38681378960609436 6.020873069763184 0.10601352900266647
-0.3765505254268646 6.02551794052124 0.10608357191085815
-0.3667261004447937 6.0376176834106445 0.10628516972064972
-0.35636991262435913 6.041383266448975 0.10634034126996994
-0.345835417509079 6.042226791381836 0.10634439438581467
-0.335820734500885 6.05245304107666 0.10651390254497528
-0.32532089948654175 6.054279327392578 0.1065358892083168
-0.31510019302368164 6.061560153961182 0.10665415972471237
-0.3048338294029236 6.068400859832764 0.10676499456167221
-0.2944834530353546 6.073963642120361 0.1068536564707756
-0.2842603921890259 6.082630157470703 0.10699722170829773
-0.27387645840644836 6.08835506439209 0.10708935558795929
-0.26366889476776123 6.098583698272705 0.10726100951433182
-0.25330105423927307 6.105772972106934 0.10737951099872589
-0.2423873394727707 6.099819183349609 0.10726720094680786
-0.23224546015262604 6.113595962524414 0.10750216990709305
-0.22182495892047882 6.120974063873291 0.10762494057416916
-0.21130597591400146 6.126205921173096 0.10771028697490692
-0.2006954550743103 6.129161834716797 0.10775592178106308
-0.19036336243152618 6.141393184661865 0.10796495527029037
-0.17986705899238586 6.14943265914917 0.10810060799121857
-0.16904863715171814 6.1467413902282715 0.10804794728755951
-0.15845084190368652 6.1522111892700195 0.10813906788825989
-0.1480661779642105 6.167314529418945 0.10839983075857162
-0.13728398084640503 6.1668901443481445 0.10838799178600311
-0.1267002671957016 6.176027297973633 0.10854453593492508
-0.11614836007356644 6.188518524169922 0.10876033455133438
-0.10528604686260223 6.185295581817627 0.10870030522346497
-0.09464283287525177 6.195636749267578 0.1088789701461792
-0.08394451439380646 6.204532146453857 0.10903254896402359
-0.07320408523082733 6.212446689605713 0.10916922241449356
-0.06241817772388458 6.218539714813232 0.10927420854568481
-0.05159645527601242 6.222833156585693 0.10934790223836899
-0.040762826800346375 6.2275495529174805 0.10942936688661575
-0.029950639232993126 6.240112781524658 0.10964903980493546
-0.01905534416437149 6.239767074584961 0.10964220762252808
-0.008164960891008377 6.2421650886535645 0.10968393087387085
0.002739878371357918 6.258573532104492 0.10997216403484344
0.013659676536917686 6.255587577819824 0.1099199503660202
0.02462361752986908 6.266467571258545 0.11011171340942383
0.035609882324934006 6.274560451507568 0.11025484651327133
0.04660980775952339 6.2806572914123535 0.11036323755979538
0.05771525204181671 6.2959113121032715 0.11063288152217865
0.06867548078298569 6.292945861816406 0.11058270931243896
0.07974418252706528 6.299333572387695 0.11069723963737488
0.09082978963851929 6.305313587188721 0.11080493777990341
0.10194644331932068 6.311887741088867 0.11092343181371689
0.11323918402194977 6.326982498168945 0.1111920103430748
0.12419905513525009 6.322413921356201 0.11111535876989365
0.1355578750371933 6.3372063636779785 0.11137931793928146
0.14675793051719666 6.342867851257324 0.11148315668106079
0.15805405378341675 6.351559162139893 0.11164059489965439
0.1693645864725113 6.359614849090576 0.11178721487522125
0.18045921623706818 6.359034538269043 0.11178237944841385
0.19188490509986877 6.369474411010742 0.11197161674499512
0.20330139994621277 6.378444194793701 0.1121353730559349
0.21473883092403412 6.3870673179626465 0.11229338496923447
0.2260640263557434 6.391627788543701 0.11238034069538116
0.23730315268039703 6.393402576446533 0.11241865903139114
0.2488720417022705 6.403465747833252 0.1126030683517456
0.2602296769618988 6.4074225425720215 0.11268046498298645
0.27183541655540466 6.416872978210449 0.11285483837127686
0.2836056649684906 6.42926549911499 0.11308132112026215
0.2955562472343445 6.444606304168701 0.11336004734039307
0.3066259026527405 6.440279960632324 0.11329318583011627
0.4596950113773346 9.313000679016113 0.1638420820236206
0.47425562143325806 9.278973579406738 0.16325776278972626
0.34101930260658264 6.451206684112549 0.11351526528596878
0.3502565026283264 6.413524627685547 0.11286280304193497
0.3604206144809723 6.394590377807617 0.11254050582647324
0.3707231879234314 6.3791422843933105 0.11227984726428986
0.3805566728115082 6.356724739074707 0.11189679801464081
0.3909699618816376 6.344954490661621 0.11170145124197006
0.4009277820587158 6.3266096115112305 0.11139064282178879
0.411359965801239 6.316498279571533 0.11122509092092514
0.42144662141799927 6.301712989807129 0.11097753047943115
0.43222227692604065 6.297684669494629 0.11091970652341843
0.44254550337791443 6.2873921394348145 0.11075186729431152
0.4528619945049286 6.277468681335449 0.11059083044528961
0.46315300464630127 6.267634868621826 0.11043165624141693
0.47412431240081787 6.267211437225342 0.11043861508369446
0.48517319560050964 6.267772674560547 0.11046326160430908
0.49563437700271606 6.260847568511963 0.11035629361867905
0.5062783360481262 6.256443500518799 0.11029408127069473
0.5174688100814819 6.2587995529174805 0.11035137623548508
0.5277373790740967 6.250102519989014 0.11021410673856735
0.5390958786010742 6.254366397857666 0.11030572652816772
0.5511800646781921 6.266673564910889 0.11053958535194397
0.5624526739120483 6.269412994384766 0.11060506105422974
0.548132061958313 5.992223262786865 0.10573159903287888
0.5574766397476196 5.9792890548706055 0.10552038252353668
0.5667686462402344 5.966244697570801 0.10530748218297958
0.5775668621063232 5.969205379486084 0.10537738353013992
0.588660478591919 5.975022792816162 0.1054980605840683
0.7107087969779968 7.087012767791748 0.12515363097190857
0.7233163118362427 7.088074207305908 0.1251944899559021
0.7353997230529785 7.084007740020752 0.12514515221118927
0.747563362121582 7.080794334411621 0.12511125206947327
0.7600131630897522 7.0803093910217285 0.1251259297132492
0.7729420065879822 7.084187984466553 0.12521813809871674
0.7850843071937561 7.080805778503418 0.1251823902130127
0.7976113557815552 7.080902576446533 0.1252085268497467
0.8102936148643494 7.082309722900391 0.12525822222232819
0.8229464292526245 7.083377361297607 0.12530232965946198
0.8352187871932983 7.081144332885742 0.1252884417772293
0.8479839563369751 7.083050727844238 0.12534816563129425
0.8605998158454895 7.083629608154297 0.12538480758666992
0.8729885816574097 7.082306385040283 0.12538817524909973
0.8857800364494324 7.084197521209717 0.12544883787631989
0.8982123136520386 7.083160400390625 0.12545806169509888
0.9112359881401062 7.086708068847656 0.12554886937141418
0.9234116673469543 7.083610534667969 0.12552237510681152
0.9358169436454773 7.0822906494140625 0.1255277395248413
0.9483829736709595 7.082162857055664 0.1255546361207962
0.9619717001914978 7.089532375335693 0.12571485340595245
0.9739389419555664 7.084871768951416 0.1256621778011322
0.9866648316383362 7.085735321044922 0.12570784986019135
0.9995296597480774 7.08751916885376 0.12577027082443237
1.012257695198059 7.088256359100342 0.1258145123720169
1.024277925491333 7.0840373039245605 0.1257711797952652
1.0376240015029907 7.088935375213623 0.1258901059627533
1.050390362739563 7.089758396148682 0.1259371042251587
1.0630065202713013 7.089517116546631 0.12596558034420013
1.075390338897705 7.087706089019775 0.12596657872200012
1.088390827178955 7.089911460876465 0.12603934109210968
1.1008515357971191 7.088545799255371 0.12604904174804688
1.1130397319793701 7.085432529449463 0.12602804601192474
1.1259666681289673 7.086996078491211 0.1260906308889389
1.1381416320800781 7.083800315856934 0.12606893479824066
1.1514430046081543 7.087564945220947 0.1261715143918991
1.1644678115844727 7.089519500732422 0.12624229490756989
1.176012635231018 7.082474708557129 0.12615321576595306
1.1891570091247559 7.0850677490234375 0.1262361854314804
1.2019222974777222 7.085326194763184 0.12627799808979034
1.2148789167404175 7.086651802062988 0.12633922696113586
1.2285182476043701 7.091846942901611 0.12646989524364471
1.2404439449310303 7.087100028991699 0.1264236569404602
1.2539821863174438 7.091526031494141 0.12654148042201996
1.265955924987793 7.087059497833252 0.12650102376937866
1.280298113822937 7.095765113830566 0.12669610977172852
1.293280005455017 7.0967888832092285 0.1267545223236084
1.3092299699783325 7.113876819610596 0.12710034847259521
1.3222684860229492 7.114921569824219 0.12716007232666016
1.330866813659668 7.092240333557129 0.12679603695869446
1.3414138555526733 7.080232620239258 0.1266230344772339
1.351704716682434 7.067069053649902 0.12642963230609894
1.4630612134933472 7.577551364898682 0.13560763001441956
1.4733659029006958 7.559991836547852 0.13533921539783478
1.4835686683654785 7.542191028594971 0.1350667029619217
1.4941792488098145 7.526721954345703 0.13483618199825287
1.5056990385055542 7.516024589538574 0.13469143211841583
1.514610767364502 7.492570400238037 0.1343183070421219
1.5243192911148071 7.473393440246582 0.13402201235294342
1.5320149660110474 7.444726943969727 0.13355569541454315
1.5424386262893677 7.429656505584717 0.13333344459533691
1.5530455112457275 7.415676116943359 0.1331310123205185
1.562220573425293 7.39511251449585 0.13281060755252838
1.5039242506027222 7.05819845199585 0.12680684030056
1.5175877809524536 7.061813831329346 0.1269191950559616
1.528904914855957 7.054497241973877 0.12683548033237457
1.542932152748108 7.059658527374268 0.12697651982307434
1.5435272455215454 7.0037407875061035 0.12601904571056366
1.556500792503357 7.0044050216674805 0.12607969343662262
1.5699459314346313 7.007118225097656 0.12617768347263336
1.5688790082931519 6.945497512817383 0.1251171976327896
1.5833101272583008 6.952882766723633 0.1252998411655426
1.5959032773971558 6.952099800109863 0.12533575296401978
1.596116542816162 6.8977837562561035 0.12440655380487442
1.610244870185852 6.9039411544799805 0.12456811964511871
1.6235063076019287 6.906270503997803 0.12466110289096832
1.6360818147659302 6.9056243896484375 0.12470080703496933
1.6331993341445923 6.840202808380127 0.12357073277235031
1.64871084690094 6.852187633514404 0.12383905053138733
1.599212646484375 6.595819473266602 0.11925600469112396
1.609100580215454 6.586367130279541 0.11913571506738663
1.6179887056350708 6.572953224182129 0.11894398927688599
1.6330267190933228 6.584494590759277 0.11920425295829773
1.6466447114944458 6.590138912200928 0.11935829371213913
1.6984906196594238 6.747523784637451 0.12226232141256332
1.7097889184951782 6.742659091949463 0.12222807109355927
1.723321557044983 6.7465691566467285 0.12235330790281296
1.722071886062622 6.69292688369751 0.12143480777740479
1.7334526777267456 6.688748359680176 0.1214137151837349
1.7479469776153564 6.696514129638672 0.1216098889708519
1.76058828830719 6.69707727432251 0.1216757521033287
1.756852626800537 6.635733127593994 0.12061675637960434
1.7724429368972778 6.647689342498779 0.12089014798402786
1.7835662364959717 6.64279842376709 0.12085764110088348
1.7804675102233887 6.585330009460449 0.1198684498667717
1.7927167415618896 6.584985733032227 0.11991896480321884
1.807161808013916 6.592613697052002 0.12011515349149704
1.802533507347107 6.530987739562988 0.11904950439929962
1.8168916702270508 6.538479804992676 0.11924371123313904
1.8288993835449219 6.537426471710205 0.1192825436592102
1.8408935070037842 6.536296844482422 0.11932038515806198
1.8389323949813843 6.4859185218811035 0.11845916509628296
1.8521344661712646 6.489291191101074 0.11857963353395462
1.8621869087219238 6.481613636016846 0.11849857121706009
1.8754916191101074 6.485240936279297 0.11862456053495407
1.8711447715759277 6.42813777923584 0.11763963103294373
1.8843746185302734 6.431722640991211 0.11776527017354965
1.8968284130096436 6.432588577270508 0.11784157156944275
1.8928394317626953 6.377995491027832 0.11690181493759155
1.9052445888519287 6.378944396972656 0.11697999387979507
1.917224645614624 6.378424644470215 0.11703166365623474
1.931978702545166 6.387039661407471 0.1172514483332634
1.9255620241165161 6.325954437255859 0.11619159579277039
1.9408411979675293 6.336419582366943 0.1164458766579628
1.9497445821762085 6.326026916503906 0.1163172572851181
1.9622894525527954 6.327462673187256 0.11640647053718567
1.9591660499572754 6.27862548828125 0.11557076126337051
1.9708459377288818 6.277493953704834 0.11561309546232224
1.9829154014587402 6.277567386627197 0.11567802727222443
1.9951130151748657 6.27800178527832 0.1157500371336937
1.9891339540481567 6.221536636352539 0.11477281898260117
2.0027384757995605 6.226592063903809 0.1149303987622261
2.0131301879882812 6.221615791320801 0.11490324884653091
2.027597665786743 6.229178428649902 0.11510811746120453
2.0191454887390137 6.166612148284912 0.11401692777872086
2.0346856117248535 6.177582740783691 0.11428526788949966
2.047431468963623 6.179949760437012 0.11439501494169235
2.0392520427703857 6.119453430175781 0.11334092170000076
2.0509722232818604 6.1189866065979 0.11339841037988663
2.065786361694336 6.12766170501709 0.11362583935260773
2.0775482654571533 6.127193450927734 0.11368424445390701
2.088698625564575 6.124896049499512 0.11370910704135895
2.080374240875244 6.065800189971924 0.11267924308776855
2.0950403213500977 6.073986053466797 0.11289907246828079
2.105026960372925 6.068548679351807 0.11286614090204239
2.1169047355651855 6.068552494049072 0.11293478310108185
2.1093361377716064 6.013078689575195 0.11197078227996826
2.1232829093933105 6.019174098968506 0.11215314269065857
2.1350021362304688 6.018880844116211 0.11221694946289062
2.146369457244873 6.017563343048096 0.11226208508014679
2.1379148960113525 5.960951328277588 0.11127540469169617
2.15059494972229 5.963522434234619 0.11139331758022308
2.1624512672424316 5.963753700256348 0.11146798729896545
2.1761398315429688 5.968966960906982 0.11163626611232758
2.16658353805542 5.91066837310791 0.11061649024486542
2.1813714504241943 5.919012546539307 0.11084374785423279
2.1914634704589844 5.914551734924316 0.11083169281482697
2.2050673961639404 5.919527053833008 0.11099688708782196
2.2173876762390137 5.920979976654053 0.11109655350446701
2.207561492919922 5.863552570343018 0.1100911796092987
2.2187588214874268 5.862236976623535 0.11013904213905334
2.229987144470215 5.860975742340088 0.1101883202791214
2.2454466819763184 5.8707499504089355 0.11044560372829437
2.2355880737304688 5.814531326293945 0.1094612330198288
2.247131824493408 5.814231872558594 0.1095292791724205
2.255746841430664 5.806355953216553 0.1094549298286438
2.2706754207611084 5.814688205718994 0.10968656837940216
2.260181427001953 5.758127212524414 0.10869388282299042
2.2743799686431885 5.764689922332764 0.10889256000518799
2.2842350006103516 5.760192394256592 0.10888275504112244
2.2970492839813232 5.763123989105225 0.10901381075382233
2.308774471282959 5.763267517089844 0.1090926006436348
2.297330141067505 5.705822467803955 0.10808098316192627
2.311079740524292 5.7111735343933105 0.10825860500335693
2.322964906692505 5.711846351623535 0.1083480641245842
2.3337509632110596 5.70978307723999 0.10838604718446732
2.322052478790283 5.6529622077941895 0.10738423466682434
2.3358747959136963 5.658484935760498 0.10756644606590271
2.345311164855957 5.6533403396606445 0.10754632204771042
2.359210968017578 5.6589131355285645 0.10773052275180817
2.3453779220581055 5.598194599151611 0.1066523939371109
2.3600475788116455 5.605730056762695 0.10687428712844849
2.3707938194274902 5.603878021240234 0.10691772401332855
2.3813834190368652 5.601635456085205 0.10695409774780273
2.3959341049194336 5.608647346496582 0.10716767609119415
2.380547046661377 5.545806884765625 0.10604619979858398
2.3943397998809814 5.551182270050049 0.10622875392436981
2.407747745513916 5.555577278137207 0.10639313608407974
2.4171135425567627 5.5506086349487305 0.10637863725423813
2.431788921356201 5.557782173156738 0.10659731924533844
2.456753730773926 5.588252067565918 0.10726382583379745
2.4749932289123535 5.603168964385986 0.10763292014598846
2.490492820739746 5.61173152923584 0.10788075625896454
2.4998183250427246 5.606326103210449 0.10786057263612747
2.5115959644317627 5.606403827667236 0.10794626921415329
2.5266435146331787 5.613705158233643 0.10817161202430725
2.558319330215454 5.657670974731445 0.1091047003865242
2.571631908416748 5.6607666015625 0.10925080627202988
2.575514793395996 5.643131256103516 0.10899706184864044
2.581958532333374 5.63120174407959 0.1088535413146019
2.5945193767547607 5.632620811462402 0.10896836221218109
2.5994160175323486 5.617422103881836 0.10876195877790451
2.6026718616485596 5.598791122436523 0.10848905146121979
2.611447334289551 5.592108726501465 0.10844773054122925
2.621286630630493 5.58771276473999 0.10845106840133667
2.6229939460754395 5.56605863571167 0.10811949521303177
2.6291308403015137 5.553915977478027 0.10797262191772461
2.6347577571868896 5.540768623352051 0.10780628770589828
2.6433231830596924 5.533849716186523 0.10776129364967346
2.650949001312256 5.524993419647217 0.10767879337072372
2.6557135581970215 5.510237216949463 0.10748140513896942
2.6628127098083496 5.500394344329834 0.10737992078065872
2.672046184539795 5.494986534118652 0.10736525058746338
2.67622709274292 5.479240417480469 0.10714872181415558
2.679694175720215 5.462137222290039 0.10690557956695557
2.6870975494384766 5.453131198883057 0.1068209707736969
2.69769287109375 5.4506120681762695 0.10686372220516205
2.702186107635498 5.4357991218566895 0.10666562616825104
2.7063660621643066 5.420446872711182 0.10645692050457001
2.712707757949829 5.409497261047363 0.10633473098278046
2.7188127040863037 5.398131847381592 0.10620445758104324
2.727454423904419 5.391838550567627 0.10617415606975555
2.7307791709899902 5.37509298324585 0.10593812167644501
2.737794876098633 5.365684509277344 0.10584673285484314
2.744333505630493 5.35538387298584 0.10573789477348328
2.7525572776794434 5.348405838012695 0.10569483786821365
2.756696939468384 5.33354377746582 0.10549607872962952
2.763986587524414 5.324836254119873 0.10541913658380508
2.7677724361419678 5.309440612792969 0.1052098348736763
2.7770273685455322 5.304581165313721 0.10520945489406586
2.781511068344116 5.290646553039551 0.10502923280000687
2.7912240028381348 5.286693096160889 0.1050473228096962
2.7957398891448975 5.272929668426514 0.10487066209316254
2.7988765239715576 5.256650447845459 0.10464391857385635
2.808256149291992 5.252142906188965 0.10465162992477417
2.813857078552246 5.240594387054443 0.10451924055814743
2.822129011154175 5.234055519104004 0.10448692739009857
2.8226959705352783 5.213298797607422 0.1041707843542099
2.831421136856079 5.20767879486084 0.10415709763765335
2.8360700607299805 5.194598197937012 0.10399435460567474
2.8413290977478027 5.182697772979736 0.10385525226593018
2.8505468368530273 5.178045749664307 0.10386159271001816
2.859844923019409 5.17353630065918 0.10387113690376282
2.8641722202301025 5.160067558288574 0.10370095074176788
2.8678836822509766 5.145563125610352 0.10350991785526276
2.8743677139282227 5.1360907554626465 0.10342016816139221
2.8794772624969482 5.124208450317383 0.10328196734189987
2.882058620452881 5.107901573181152 0.10305454581975937
2.890504837036133 5.102038383483887 0.10303790867328644
2.9000866413116455 5.098177909851074 0.10306204110383987
2.900604248046875 5.0784382820129395 0.10276520252227783
2.910898447036743 5.075864315032959 0.10281579941511154
2.918602705001831 5.068772792816162 0.1027752012014389
2.9202799797058105 5.051272392272949 0.10252358019351959
2.925926923751831 5.040709972381592 0.10241272300481796
2.9359824657440186 5.037755966186523 0.10245668888092041
2.936870574951172 5.01911735534668 0.10218174010515213
2.9450058937072754 5.012922763824463 0.10216014087200165
2.9502036571502686 5.001755714416504 0.10203737765550613
2.9562742710113525 4.9921112060546875 0.10194575786590576
2.964193820953369 4.985611915588379 0.10191855579614639
2.9719085693359375 4.978779315948486 0.10188478976488113
2.9732179641723633 4.9612717628479 0.10163258761167526
2.963041067123413 4.924770832061768 0.1009906679391861
2.9640920162200928 4.907104015350342 0.10073434561491013
2.9742066860198975 4.904481410980225 0.10078694671392441
2.9821701049804688 4.898305416107178 0.1007668673992157
2.9837615489959717 4.881711483001709 0.10053250938653946
2.990089178085327 4.872925758361816 0.10045892000198364
2.9977853298187256 4.86638879776001 0.1004319041967392
2.9994499683380127 4.850109100341797 0.10020384937524796
3.0110440254211426 4.849908828735352 0.10030815005302429
3.011521339416504 4.8318328857421875 0.10004288703203201
3.02018404006958 4.826938629150391 0.10005057603120804
3.023390293121338 4.8133544921875 0.09987825900316238
3.0301101207733154 4.80540657043457 0.09982294589281082
3.037484645843506 4.798512935638428 0.09978976100683212
3.0389299392700195 4.782301425933838 0.09956280887126923
3.044311285018921 4.77234411239624 0.0994659960269928
3.054392099380493 4.769760608673096 0.0995231345295906
3.0546412467956543 4.751862049102783 0.09926079958677292
3.0680651664733887 4.754476070404053 0.09942713379859924
3.067354202270508 4.735208511352539 0.09913603961467743
3.0757129192352295 4.729994773864746 0.09913915395736694
3.081524610519409 4.720877647399902 0.09906066954135895
3.08294415473938 4.7050862312316895 0.098842091858387
3.0924549102783203 4.701674938201904 0.09888370335102081
3.0961971282958984 4.689512252807617 0.09874143451452255
3.104936361312866 4.684939861297607 0.09875914454460144
3.1108052730560303 4.676046371459961 0.09868600964546204
3.109412908554077 4.656306266784668 0.09838380664587021
3.1167678833007812 4.649723052978516 0.09835953265428543
3.125173330307007 4.64470911026001 0.09836873412132263
3.1308932304382324 4.635716438293457 0.09829389303922653
3.1366286277770996 4.626772880554199 0.09822021424770355
3.1374571323394775 4.6106438636779785 0.09799394756555557
3.146059513092041 4.605976104736328 0.0980113297700882
3.1524572372436523 4.598086357116699 0.09796040505170822
3.1582155227661133 4.589285850524902 0.0978902280330658
3.163097381591797 4.579240798950195 0.09779360145330429
3.1676888465881348 4.568809986114502 0.09768880158662796
3.171895742416382 4.557863712310791 0.09757299721240997
3.176276683807373 4.547205924987793 0.09746340662240982
3.184176206588745 4.541604995727539 0.09746235609054565
3.1846299171447754 4.525423526763916 0.09723427891731262
3.1942102909088135 4.522242069244385 0.09728558361530304
3.1987030506134033 4.511866569519043 0.09718237072229385
3.2035598754882812 4.502038478851318 0.09709098935127258
3.2072696685791016 4.490634918212891 0.09696567058563232
3.21403431892395 4.4835357666015625 0.09693339467048645
3.2223331928253174 4.478579998016357 0.09694772213697433
3.2284255027770996 4.4705634117126465 0.09689605236053467
3.2291243076324463 4.455123424530029 0.09668344259262085
3.237809896469116 4.450733661651611 0.096710704267025
3.239340305328369 4.436535835266113 0.0965249240398407
3.247950792312622 4.432060718536377 0.09655078500509262
3.2471742630004883 4.4148149490356445 0.09629844129085541
3.2610385417938232 4.417486190795898 0.09648074209690094
3.263949394226074 4.405312538146973 0.09633917361497879
3.267146110534668 4.393570899963379 0.09620698541402817
3.276857614517212 4.390602111816406 0.09626709669828415
3.2799885272979736 4.378828048706055 0.09613434225320816
3.2849597930908203 4.3695454597473145 0.09605631977319717
3.2832884788513184 4.351485252380371 0.09578515589237213
3.293144941329956 4.3487372398376465 0.09585107117891312
3.299220085144043 4.340991973876953 0.09580716490745544
3.303272247314453 4.33060884475708 0.09570514410734177
3.3141891956329346 4.329226493835449 0.09580231457948685
3.3106675148010254 4.309019565582275 0.09548290818929672
3.320606231689453 4.306373119354248 0.09555257111787796
3.3243768215179443 4.295733451843262 0.09544512629508972
3.3360939025878906 4.2953596115112305 0.09556608647108078
3.333644390106201 4.276772975921631 0.09528189152479172
3.3333723545074463 4.26106071472168 0.09506134688854218
3.3459320068359375 4.261763572692871 0.09520719945430756
3.34905743598938 4.25044584274292 0.09508483856916428
3.3557145595550537 4.24363374710083 0.09506335854530334
3.365283250808716 4.24049711227417 0.09512456506490707
3.3651349544525146 4.2251410484313965 0.09491172432899475
3.3737406730651855 4.220803737640381 0.0949464663863182
3.374274492263794 4.206393241882324 0.0947546735405922
3.3800129890441895 4.1985087394714355 0.0947098508477211
3.385863780975342 4.19077730178833 0.09466864168643951
3.3871028423309326 4.177371501922607 0.09449923038482666
3.38930606842041 4.165203094482422 0.0943576768040657
3.4049949645996094 4.169593334197998 0.0945916473865509
3.404029369354248 4.15358829498291 0.0943632423877716
3.410749912261963 4.146999835968018 0.09434869885444641
3.4165523052215576 4.139304161071777 0.09430916607379913
3.4222965240478516 4.131549835205078 0.09426847845315933
3.424541473388672 4.119598865509033 0.09413206577301025
3.43776535987854 4.120850563049316 0.09429766237735748
3.4365053176879883 4.104750633239746 0.09406638890504837
3.438570261001587 4.092679500579834 0.09392718970775604
3.452338695526123 4.094532012939453 0.09410788118839264
3.4540293216705322 4.082054615020752 0.09395955502986908
3.4580612182617188 4.072380542755127 0.0938756912946701
3.455449342727661 4.054934978485107 0.09361246228218079
3.466693162918091 4.053772449493408 0.09372520446777344
3.473630666732788 4.047557353973389 0.09372158348560333
3.4758474826812744 4.035862445831299 0.09359114617109299
3.478126287460327 4.02427864074707 0.09346318989992142
3.489163875579834 4.022831916809082 0.09357091784477234
3.4937634468078613 4.013956546783447 0.09350620210170746
3.493173837661743 3.999159097671509 0.09330341964960098
3.4971141815185547 3.989590883255005 0.0932224839925766
3.509531021118164 3.989683151245117 0.09336766600608826
3.51342511177063 3.980077028274536 0.09328626096248627
3.5172929763793945 3.970465898513794 0.09320477396249771
3.5148282051086426 3.9537556171417236 0.09295640885829926
3.5293376445770264 3.956146001815796 0.0931573361158371
3.529278039932251 3.9422030448913574 0.09297396242618561
3.5398142337799072 3.94010853767395 0.09307017177343369
3.541308879852295 3.9279568195343018 0.09292902797460556
3.540407419204712 3.913198471069336 0.0927259549498558
3.5463390350341797 3.9060261249542236 0.09270256757736206
3.555229663848877 3.9021084308624268 0.09275675565004349
3.5604054927825928 3.8941118717193604 0.09271427989006042
3.5590410232543945 3.8789994716644287 0.09250226616859436
3.567909002304077 3.8750622272491455 0.09255677461624146
3.563129425048828 3.8563385009765625 0.09225799143314362
3.5759825706481934 3.8567192554473877 0.09241631627082825
3.5868773460388184 3.8549489974975586 0.09252381324768066
3.5842268466949463 3.8386406898498535 0.09228242933750153
3.5884549617767334 3.8297433853149414 0.09221900254487991
3.5979092121124268 3.826422691345215 0.09229015558958054
3.597759246826172 3.8129026889801025 0.09211541712284088
3.600796937942505 3.802799940109253 0.09202307462692261
3.60966157913208 3.798856019973755 0.09207998961210251
3.618508815765381 3.794877052307129 0.09213653206825256
3.6157541275024414 3.778757333755493 0.09189827740192413
3.6326589584350586 3.783179521560669 0.09215991944074631
3.630283832550049 3.7675182819366455 0.09193265438079834
3.633714437484741 3.7579264640808105 0.09185325354337692
3.6359775066375732 3.7471535205841064 0.09174495190382004
3.6452343463897705 3.743594169616699 0.09181348234415054
3.646013021469116 3.7313385009765625 0.09166887402534485
3.658071756362915 3.7306277751922607 0.09180817008018494
3.6623804569244385 3.722001314163208 0.09175308793783188
3.664121389389038 3.710789918899536 0.09163425862789154
3.6716113090515137 3.705413818359375 0.09165965020656586
3.677086114883423 3.6980040073394775 0.09163501858711243
3.6774802207946777 3.685509443283081 0.09148435294628143
3.6815340518951416 3.6767117977142334 0.09142538160085678
3.6907472610473633 3.673065662384033 0.09149479120969772
3.684743881225586 3.654308795928955 0.09118767082691193
3.694591760635376 3.65130352973938 0.0912734866142273
3.700085401535034 3.6439859867095947 0.0912519097328186
3.707102060317993 3.638169050216675 0.09126816689968109
3.7092838287353516 3.6276190280914307 0.09116581827402115
3.714787006378174 3.6203346252441406 0.0911455973982811
3.721698522567749 3.6144232749938965 0.09116021543741226
3.7227261066436768 3.602813482284546 0.09103117883205414
3.7304041385650635 3.5976531505584717 0.09106520563364029
3.734574556350708 3.5891122817993164 0.09101391583681107
3.741440773010254 3.583167314529419 0.09102866053581238
3.740509271621704 3.5697765350341797 0.0908542349934578
3.74261212348938 3.559319257736206 0.09075424075126648
3.753277540206909 3.557003974914551 0.09086214005947113
